ply
format ascii 1.0
element vertex 385
property float x
property float y
property float z
end_header
-0.02524566 0.03716550 0.00135258
-0.02864129 0.07021285 -0.03795542
-0.01676246 0.05785892 -0.03100281
0.00606064 -0.02289244 0.04717050
0.01421690 -0.03474203 -0.02468623
0.05142641 0.00326707 0.05980202
-0.05406069 0.04477434 -0.03753466
-0.01102598 -0.00851644 -0.01353627
-0.05092317 -0.00093734 0.01269228
0.02434001 0.05231966 -0.04391917
0.02105852 -0.02403121 0.01593138
0.01684527 -0.00931110 0.00985611
-0.00231360 -0.00633519 0.08532385
-0.03803392 -0.02299340 -0.02577358
0.02236441 -0.00629300 0.00580285
0.05949843 -0.02085103 -0.02717562
0.09310966 -0.06562254 -0.02114782
-0.10022349 -0.04636471 0.00824063
0.06362086 -0.04683023 -0.05459180
-0.01248180 0.00077203 -0.02259569
-0.02890743 0.05917955 0.00606680
0.02862980 -0.05175750 -0.01494014
-0.07371450 0.01368607 -0.01383400
-0.01264930 0.00672177 -0.07427159
-0.06867038 0.01606925 -0.02889476
0.03522776 -0.01881645 -0.06322430
-0.04080259 -0.03756157 -0.00347925
-0.01440954 -0.00630767 -0.04853148
-0.01879786 0.05100055 0.04043674
-0.04091750 -0.01463758 -0.03455589
0.00985177 -0.01209194 -0.03748502
0.00466209 -0.05342153 -0.00942234
0.02629810 0.03215706 0.01230978
-0.02552825 0.04106065 0.06119866
0.04193756 0.01793628 -0.01390534
-0.01258129 0.00034506 -0.03116466
-0.03046033 -0.02936784 0.06646751
-0.02849609 -0.00504866 -0.04716551
-0.04561119 0.04536336 -0.01340735
-0.01776535 0.00298484 0.04448623
0.03816814 -0.02707678 0.00578865
0.02019514 0.02293488 -0.01566909
0.05435883 -0.01680717 -0.11333457
0.04947591 0.00006221 -0.05662745
-0.03374533 0.04876779 -0.02983036
-0.01858591 -0.03364139 0.07898951
0.00575683 0.05592834 0.05917126
-0.00709668 -0.02549037 -0.01608174
-0.04736478 0.02257477 0.04370173
0.07974145 -0.06686761 -0.02536356
0.00239290 0.08741879 -0.00533692
0.01892710 -0.01953179 -0.03114778
0.00571576 0.00092710 0.05476287
-0.04969743 -0.00810611 -0.00907481
0.00261809 0.04572152 0.06741933
-0.01393940 -0.03408010 -0.02303037
0.02212864 -0.05117146 0.11757575
-0.02950406 0.03705852 0.01457690
0.06250390 -0.00447206 -0.04404255
0.01560663 -0.04889571 -0.05984014
0.05411129 0.02698844 0.00530410
0.01006445 -0.03653342 -0.00394045
-0.00002485 -0.07439602 -0.02755483
0.05931269 0.01331406 -0.01523347
-0.02710335 -0.09305375 -0.02303673
0.00556510 0.02086069 -0.01924866
0.04166935 -0.05967144 0.03682829
-0.06725805 -0.08165967 0.00760597
0.04909159 -0.02008144 0.08842753
0.00410988 -0.02506276 0.00393429
-0.00291980 0.03193825 -0.07976803
-0.00095730 -0.03086492 -0.02088684
0.01166947 0.02629179 0.01403286
-0.04193344 0.01957171 0.03431730
-0.02937839 -0.00212900 -0.02002690
0.02551149 -0.00982509 -0.03750130
-0.06324191 -0.01787015 -0.00582780
-0.06876805 0.04039007 0.00749789
0.00132824 -0.01919902 -0.02260413
0.03202624 0.04777400 -0.00673637
-0.00412922 -0.08288478 0.00112560
0.05058254 0.02924110 0.01666530
-0.07092119 0.02043016 -0.07274389
0.01676425 0.00353715 0.05469324
-0.01782136 0.08761141 -0.00405750
0.00015444 0.00754065 0.04370755
0.00149549 0.12086122 0.09035164
0.07814126 0.05363550 0.01973597
-0.00315988 0.05626025 0.04414654
-0.00625915 0.00728812 -0.06988150
-0.00852570 0.05386382 -0.03511751
-0.00750989 0.07936731 -0.07418109
0.00894612 0.00164786 -0.01446567
-0.01661092 -0.05397165 0.01753747
-0.00940783 -0.03283521 0.03024030
0.04485948 0.01865482 0.04584636
-0.03020860 -0.05047005 0.04632931
0.02719860 0.02501474 0.01373205
-0.01147431 0.02546039 0.04422451
0.02273679 -0.00036328 0.03707749
0.06318306 -0.07973812 -0.04999846
0.03776503 0.02701944 -0.00527432
-0.03583796 0.02358224 -0.06528836
0.02755428 -0.02743334 -0.02305590
-0.00284265 -0.06474833 -0.02053847
-0.02301368 0.01093711 -0.06783681
0.03409395 0.04495217 0.06799166
0.01587624 -0.02853024 -0.03852588
-0.04852694 -0.00309667 0.00806506
-0.04377001 -0.03122769 -0.03336104
-0.07606042 0.03708852 -0.01395495
0.05593623 -0.03867158 0.02988934
-0.01153859 0.01560490 0.07378153
0.01064180 0.05126370 -0.06509830
-0.07593784 0.02094902 0.00126548
0.05863207 -0.04135744 0.05161989
-0.03448613 -0.03950149 -0.04419023
-0.03854643 0.01533185 -0.00686721
0.03400109 0.06861269 -0.04241117
-0.00140342 -0.00996401 -0.04757598
0.84847775 0.13937454 0.03354076
0.75884321 0.12844484 0.07748648
0.80531376 0.13801898 0.03350161
0.84450820 0.10256170 -0.02440218
0.79742793 0.13738093 -0.02807550
0.81089867 0.15728941 -0.01756855
0.79299812 0.12284113 -0.01485526
0.75197354 0.07491847 -0.05709853
0.74748322 0.12711581 0.02117664
0.80585668 0.06800428 -0.00759110
0.74848200 0.06250477 0.03143790
0.71767716 0.01571117 -0.02168932
0.79458852 0.04814186 0.01516962
0.74324692 0.13619992 -0.10309261
0.77023078 0.09596321 0.03444349
0.85658309 0.11322922 -0.04711339
0.78916414 0.07861546 0.01006112
0.78545130 0.11448328 0.03465141
0.81170136 0.10160732 0.05068273
0.82419735 0.16483915 0.01033522
0.77323505 0.11150900 0.02887845
0.72599203 0.06089567 0.03590949
0.76992711 0.10227558 0.02115333
0.83811755 0.16213521 0.01024465
0.75579119 0.07732971 -0.06256384
0.79421268 0.08321801 0.03480869
0.83190319 0.09975881 0.00229183
0.76407408 0.07767361 0.06967988
0.80318986 0.09710209 0.03605685
0.80277425 0.05244826 0.03013222
0.76684864 0.06720797 -0.07664026
0.85336193 0.09124180 0.03141483
0.76387302 0.11796752 -0.04215625
0.79918489 0.10390676 -0.01210904
0.80798855 -0.00349428 0.01218605
0.76270198 0.19177985 0.04347866
0.84980248 0.11550450 0.04058505
0.81277464 0.02892783 0.00866775
0.86316713 0.07513427 -0.02419664
0.81658989 0.07303799 -0.04916549
0.71295801 0.06921995 -0.06256829
0.78131189 0.10081274 0.00422796
0.84113671 0.15182849 -0.02845084
0.83005448 0.10582973 -0.00059728
0.88384422 0.10038125 -0.03569287
0.79338407 0.10388848 0.00228366
0.81950281 0.14271788 0.02360010
0.80659932 0.03305248 0.00296176
0.81468597 0.10292342 -0.06922723
0.77298489 -0.01209154 -0.01478534
0.75571236 0.15406693 -0.04486684
0.79198166 0.08260635 0.07644123
0.82930954 0.10699703 0.04882087
0.75929666 0.14409338 0.07820775
0.75199337 0.07918370 -0.03844470
0.80442941 0.09947603 -0.03673856
0.76503113 0.09488599 0.02433583
0.84434548 0.17524031 -0.01032941
0.76293246 0.10770445 -0.04104759
0.83380978 0.09794168 0.05122462
0.84572630 0.10303183 0.00793122
0.78191367 0.02980292 -0.03547386
0.80481141 0.06635210 -0.04535175
0.86291175 0.09999214 -0.00304578
0.79790468 0.10685669 0.01280928
0.83950655 0.04904745 -0.01939589
0.87044234 0.13675736 0.07073705
0.74284243 0.08525376 -0.04597292
0.77578617 0.11730666 0.04857868
0.91299037 0.09546228 0.00179282
0.76186772 0.12998826 -0.05475996
0.83551907 0.18669201 0.08304685
0.80971489 0.06781607 0.06543091
0.81782914 0.08346008 -0.08201703
0.82410393 0.16291085 -0.03983466
0.84048817 0.10694170 0.00894989
0.80074779 0.05709386 -0.00936400
0.87711830 0.07176632 -0.03095627
0.76179229 0.16784362 -0.00075892
0.82983603 0.02697830 -0.07536573
0.83384826 0.00379962 -0.02562144
0.78288421 0.08864326 0.05780346
0.77941439 0.12061456 0.02699028
0.80107308 0.06965936 -0.01971492
0.80463310 0.10896388 -0.07989884
0.82661311 0.06105210 0.04334017
0.85361608 0.06597584 -0.03376300
0.80830959 0.11522709 0.03623246
0.82353884 0.11460648 -0.04659270
0.83408747 0.06457263 0.03709841
0.79139713 0.06219485 -0.01589678
0.79995570 0.07248980 0.04750227
0.83008104 0.08256983 -0.04466004
0.83295752 0.07692781 -0.01730985
0.75571196 0.02524992 0.01724535
0.79581522 0.04732940 -0.02770270
0.80436377 0.12723883 -0.01635626
0.78624411 0.15467041 -0.05007984
0.75638023 0.11785594 -0.04598605
0.85605036 0.07791485 -0.00698012
0.75904320 0.09704492 0.07941705
0.84937984 0.08091830 0.01592939
0.73471152 0.12221724 0.05328857
0.76431120 0.11511998 0.07792125
0.85340662 0.08543165 0.00029416
0.74697212 0.11121802 -0.00035571
0.77121230 0.11022717 -0.05584406
0.81795864 0.14075286 0.03136310
0.78515707 0.11064543 0.08187331
0.73755937 0.10973257 -0.04344010
0.78182153 0.08961264 0.04832534
0.76595103 0.09478909 -0.02132874
0.79623077 0.10844621 0.04235325
0.80839515 0.11311463 0.00550720
0.82436046 0.11303945 0.01093937
0.81365729 0.16145088 -0.04698979
0.72333752 0.07637073 -0.07177808
0.84635553 0.14417659 -0.04281285
0.80123570 0.08605023 -0.01426071
0.86374353 0.11310112 -0.03271302
-0.49172951 0.67251126 0.21053348
-0.46216753 0.71930255 0.20332473
-0.54700535 0.68563337 0.12660914
-0.47494090 0.70764914 0.21517813
-0.49376716 0.69547557 0.17909811
-0.46711898 0.73722488 0.18826103
-0.50462278 0.70131446 0.24545229
-0.50798482 0.70079375 0.19331493
-0.55754066 0.68521227 0.18908266
-0.47368716 0.72554867 0.24419136
-0.54475145 0.74988362 0.21667018
-0.57388262 0.63241408 0.24016820
-0.55694989 0.68676596 0.19405814
-0.55682826 0.64503060 0.18634362
-0.49311877 0.65682500 0.29416255
-0.53707997 0.71692134 0.22358296
-0.42795137 0.66077122 0.16745537
-0.56788330 0.65710265 0.10127370
-0.50839661 0.73280536 0.24170473
-0.49077864 0.68291450 0.23321505
-0.47808640 0.72841579 0.20506257
-0.58886796 0.68240389 0.20237826
-0.47701575 0.68842128 0.17044897
-0.54051223 0.67551894 0.21758361
-0.44990123 0.76726020 0.21816572
-0.47031971 0.68272956 0.20813731
-0.42172678 0.74979594 0.18634809
-0.52079888 0.67484830 0.16496405
-0.43433332 0.74610568 0.17621654
-0.51521495 0.69599876 0.19429314
-0.48080050 0.64754028 0.19612245
-0.50165100 0.76270521 0.24165656
-0.52341091 0.70489664 0.19844226
-0.51459495 0.72352328 0.20420574
-0.60552008 0.77526067 0.19828749
-0.51712082 0.69703739 0.22965508
-0.52950459 0.69584506 0.24377680
-0.47883764 0.74127793 0.21318989
-0.47550432 0.64139414 0.23649271
-0.49467007 0.66736216 0.30020363
-0.50815476 0.67479117 0.24178994
-0.51816448 0.75402775 0.20274648
-0.45727174 0.63584786 0.20215808
-0.49869362 0.69863780 0.19670908
-0.43666530 0.71371177 0.21136913
-0.49377892 0.73389152 0.21290279
-0.44571874 0.68154766 0.19897918
-0.56522334 0.66377791 0.19922584
-0.55743953 0.73835908 0.21977389
-0.45802362 0.66916600 0.17998195
-0.48070890 0.70415059 0.20323949
-0.44204556 0.72241984 0.18620205
-0.52969331 0.71028518 0.16801395
-0.55898393 0.74017093 0.20620828
-0.51549983 0.77351234 0.14471983
-0.53563597 0.64367727 0.23897345
-0.46032297 0.69526849 0.15458911
-0.48569507 0.71462322 0.24662432
-0.47173337 0.72571430 0.17904866
-0.55173193 0.74193022 0.11589430
-0.45421621 0.70266642 0.15149013
-0.50462353 0.64713715 0.24095508
-0.58060155 0.66642223 0.16053469
-0.53351982 0.72428812 0.22657775
-0.51450806 0.68873396 0.22845188
-0.55842257 0.76220693 0.21730159
-0.39839913 0.68553569 0.14870193
-0.52808191 0.75656109 0.23775575
-0.50266869 0.75222641 0.20976736
-0.47648982 0.78915853 0.21137505
-0.51947066 0.70631354 0.15052548
-0.48772726 0.71120068 0.25231462
-0.52933153 0.69858649 0.18551730
-0.46627740 0.70261841 0.20119351
-0.51725094 0.71475222 0.16003712
-0.44332247 0.69042856 0.21180184
-0.57872553 0.67301534 0.23847247
-0.52265112 0.82320372 0.20343687
-0.46962982 0.66470775 0.23965412
-0.50468328 0.66284314 0.17529537
-0.53686151 0.67286725 0.20629126
-0.49215934 0.74644360 0.21183130
-0.54612436 0.71717795 0.19633878
-0.49210072 0.74609042 0.16938503
-0.55010400 0.68864983 0.17868565
-0.53980257 0.72584912 0.13605567
-0.51420096 0.70956379 0.17813919
-0.50875560 0.71690820 0.21342774
-0.49776132 0.76645852 0.17599817
-0.54448328 0.69764096 0.15011369
-0.56645064 0.74109191 0.21454600
-0.58069958 0.71390048 0.22165454
-0.53134682 0.67878318 0.22245074
-0.53118178 0.72042175 0.20735860
-0.53518050 0.65546686 0.14561050
-0.52610987 0.66809109 0.11716743
-0.55513803 0.68717770 0.17029698
-0.54301753 0.65426533 0.22004745
-0.41894253 0.64986940 0.25419283
-0.49830371 0.74749724 0.09588950
-0.50502075 0.67446879 0.20547503
-0.48713348 0.75121046 0.23323482
-0.46645758 0.71592912 0.20044065
-0.54584308 0.74512263 0.19480006
-0.43726833 0.74692895 0.28698951
-0.45747052 0.70078918 0.20365910
-0.46714821 0.71193181 0.31945032
-0.52123601 0.73479837 0.18658636
-0.49888950 0.71128317 0.20034081
-0.48221795 0.66458451 0.14071035
-0.60027837 0.70708023 0.24037784
-0.49117600 0.72450516 0.20330242
-0.43077174 0.79837766 0.19775678
-0.43979640 0.62649517 0.28579972
-0.51781223 0.68757767 0.18269280
-0.45485184 0.69106688 0.14722102
-0.58220259 0.63491159 0.19569805
-0.50971366 0.74204413 0.19616527
-0.44385946 0.68485707 0.18970303
-0.55872815 0.65979066 0.21589537
1.15036175 0.14176861 -1.16671983
0.38230041 0.32963725 0.83620767
1.00072069 0.15642610 -1.31820582
1.15820563 1.37852942 -0.43464098
0.82720467 0.44362376 0.20925623
1.22810570 1.02183821 0.90830663
-1.19364682 1.33699868 1.33466530
-1.06629519 -0.96006241 -1.22786161
-0.10989996 1.06339197 -1.18944319
-0.92999179 1.45809572 0.26384761
1.37822467 1.16226210 -0.58758706
0.29562721 0.26818087 -0.92232051
0.34307791 0.66220161 -0.73689235
-0.86703423 -0.15193060 0.46149112
-0.71868779 -1.37798098 0.78777931
-0.33225605 -0.56370762 -0.59696183
-0.16326102 0.05587398 -1.48111745
-0.61494275 0.01598769 0.15824871
0.66539711 0.47805138 -1.42954796
0.23981172 1.43208019 1.38288026
-0.68229579 0.66523854 0.60131800
-0.82494600 -1.10335822 -0.12267450
0.95677549 -0.85389137 -1.47811778
-0.20889968 -1.32784260 -0.41361631
0.25756250 1.33538343 -0.93622410
