ply
format ascii 1.0
element vertex 780
property float x
property float y
property float z
end_header
-0.64647769 -1.12741741 -0.00092929
1.55586061 1.20238409 0.00431145
-1.19161110 -0.91739119 0.00473570
0.31245000 -0.61753406 -0.00008296
-0.16096148 1.05953097 0.00202775
-1.41183407 -0.53824258 -0.00502003
1.63724570 -1.16067262 -0.00216127
0.97805907 -0.64051016 0.00438511
-0.44591198 -1.37554498 0.00314989
-0.56355423 1.25717847 0.00271870
0.33851213 1.12956028 -0.00686425
-1.40386854 -1.16859990 -0.00170515
1.73687587 -1.15474370 0.00416989
0.55859821 1.39688778 0.00365947
0.45132579 0.52458446 0.00266318
0.97855862 0.63532721 -0.00058792
0.41814118 -0.85425245 0.00215911
1.82122253 1.07847190 0.00256433
-1.62461496 -0.95698273 0.00006616
-0.18787151 1.05671620 -0.00820861
0.15431592 -0.54440356 0.00097829
-0.70609240 0.99823963 0.00120949
-0.28195292 0.42631417 0.00671786
-1.19985755 -1.37804427 0.00141524
0.54378183 -0.42422765 -0.00457573
1.30198109 1.22876221 0.00258473
-0.38244858 -0.32294533 -0.00047370
0.09146099 -0.51320109 0.00127063
-1.15847232 1.21119696 0.00823249
1.10417760 -1.05609369 0.00623612
-1.87467153 0.36521379 0.00460324
-1.53224623 -0.87874436 -0.00111440
-0.61780043 -0.79080966 -0.00168142
-0.07651741 1.30153729 0.00861386
-1.79753274 -0.36708340 -0.00069016
-1.18209924 -0.79543925 -0.00009809
-1.33044524 0.54721081 0.00121011
0.29903768 -0.92981308 0.00528403
0.91935726 0.31362341 0.00273208
-1.09398123 -1.10540151 -0.00300298
1.96106221 -0.95649599 0.00067575
-1.20292222 -0.92839070 -0.00222522
1.13672649 0.48297649 0.00074934
-1.04065464 -0.98975289 0.00866402
1.72865005 1.25185491 0.00670602
-0.32998967 -0.74794740 0.00250057
1.54709778 -0.35316175 -0.00291571
0.70585681 0.24549222 -0.00205295
0.58245816 -0.32665323 -0.00281597
-0.26576878 1.41266164 -0.00361136
-1.52651295 -1.48332895 0.00122709
1.44622842 1.00511689 -0.00130527
1.20505263 -1.37108408 -0.00516242
-0.95481119 1.47910545 -0.00520092
1.47043300 -1.46891109 0.00024324
1.47388935 1.12297121 0.00114620
-0.03763048 0.39437167 0.00128154
1.72235772 1.16289751 0.00214070
1.64324497 -0.83160318 -0.00724006
0.52638451 0.82291664 0.00245849
-1.58724113 -0.00160396 -0.00590945
0.74986848 -0.43746478 -0.00194106
-0.00295659 0.67705043 -0.00601377
-0.79311408 -0.13063606 -0.00128720
-1.37344042 1.27513538 0.00398386
-0.01589948 0.25149620 0.00367413
-1.77025769 -0.97246493 0.00003110
-0.59199002 -0.79250420 0.00305910
-1.48943178 -0.24169362 0.00157892
-1.12650643 -0.76295539 0.00018987
-0.53963191 -1.37387502 -0.00189458
-0.54489943 1.24165382 0.00834696
1.19975731 0.15855581 -0.00641561
-0.05790208 -0.45048973 0.00167970
-0.61785415 0.45604248 -0.00433834
1.79941938 0.11823010 -0.00005272
-0.08450570 0.85149241 0.00327523
0.45581036 1.32452618 0.00725362
0.41657546 -1.29918037 0.00258444
-1.10868172 -0.87855671 -0.00043671
-1.24752876 0.94367911 -0.00134617
0.21642940 -0.13084260 0.00236269
-1.50564733 1.39797874 -0.00165102
-1.92408781 -1.12131350 0.00428043
1.89091763 0.59035574 0.00360549
-0.05274533 1.15000973 -0.00069872
-0.04961860 -1.07807543 0.00105248
-0.53246250 0.83385650 0.00462749
-1.91734903 -0.87220248 0.00009242
0.33109287 0.64796827 0.00076763
1.64273642 -0.93466420 0.00655227
-0.83527309 -0.76906515 -0.00314666
-0.18160642 0.48988810 -0.00006858
1.29739251 -0.80000478 -0.00827607
1.97565687 1.30153344 -0.00039889
0.13697506 -0.72115935 0.00609103
1.07891734 1.42545022 -0.00029669
-1.20428247 -1.03754571 0.00114464
1.22166419 0.67988430 -0.00490815
0.75296387 0.47556538 -0.00646174
0.62440050 -0.88774935 -0.00853755
1.91125471 1.18512134 0.00735639
-0.82893827 -1.16860845 0.00405558
-1.82057492 0.36709864 -0.00357616
-1.20871034 0.40255076 -0.00583821
-1.88384582 1.37087307 0.00148376
0.28644384 -0.42918773 0.00334489
0.58935907 -0.59777491 0.00421929
0.38263209 1.31570729 0.00241142
1.15580732 -0.37960937 -0.00626923
-1.00267428 -0.04539966 -0.00171890
-1.25645906 -1.36678836 -0.00102689
0.53061351 -0.23312997 0.00118518
1.70046600 -1.17021236 -0.00086033
-1.47103968 1.24586241 -0.00150902
-0.82640907 0.86766652 -0.00132292
0.22729003 -1.32598353 0.00719016
1.04884112 -0.33684542 0.00379557
-0.22551476 1.24017179 0.00300788
-0.77248770 0.34549225 0.00381731
-0.46852457 1.12051635 0.00321136
0.46750741 1.05997123 -0.00494501
0.77346514 1.28536201 -0.00163664
-1.86980382 1.39033687 -0.00096910
-1.27228841 -1.41218555 -0.00263469
0.18632442 0.86533832 0.00647682
-0.05399644 0.43850629 0.00047362
-1.86058462 1.05863671 -0.00158304
-0.60852527 1.33979537 -0.00083092
0.60416524 -0.43272738 -0.00191284
-0.48725305 1.28826882 0.00161991
0.03968777 0.90013505 0.00992579
-1.49932183 1.07680700 0.00558030
0.97232606 -0.95538864 -0.00128616
-1.03876067 1.36837109 -0.00244345
1.17482850 -1.06121575 -0.00240703
1.55651998 -0.33026885 -0.00056398
0.34375298 0.79062034 -0.00013848
1.82171402 0.25622015 0.00152960
0.80233623 -1.15100780 -0.00194309
-0.89714779 -0.93933359 -0.00113664
-0.19150893 0.58952085 -0.00278454
0.98330564 -1.21796855 0.00635329
-1.34530391 0.73369000 0.00073312
1.78900491 0.00578826 -0.00385920
0.84579349 -0.54269129 -0.00211072
1.43817002 1.22226869 -0.00602700
0.62883430 -0.84540457 0.00319683
-0.48537957 -0.05805272 0.01029185
0.57925835 0.36251471 -0.00513776
-1.03260435 0.74850088 -0.00177369
1.81661844 0.30067402 -0.00761318
0.40993406 -0.61328055 -0.00196569
0.16520329 -0.36836899 0.00878819
0.80155985 -0.90699132 -0.00059110
-0.11640340 1.49441177 0.00450031
-1.57623498 0.83885097 0.00571982
-0.11988293 -0.45887661 0.00124571
1.32713075 0.30835152 0.00471098
-0.71589934 0.72372653 -0.00046155
-0.50695756 0.71801659 -0.00125836
1.85070898 -0.15217765 0.00435036
-1.15101116 0.50765346 0.00069063
0.78584973 -0.13365772 -0.00348430
-0.08425695 1.30808801 -0.00083175
-1.17855072 -1.18443660 -0.00066962
0.37679440 -0.77397316 -0.00354708
-0.88035689 0.93656935 0.00145555
-1.08913532 0.76625386 0.00515861
-1.33295916 0.07471122 -0.00607307
-1.23216670 0.33567950 0.00255540
0.47912241 -1.14176602 0.00146552
-0.50249239 1.13516148 0.00216174
0.54786450 0.26674951 0.00646247
-1.18195542 0.18131066 0.00259809
-0.03736831 -0.20090351 -0.00305140
-0.91750036 -1.04603705 -0.00426306
1.93728777 -0.48443124 -0.00039759
-0.53572822 -0.06550274 0.00242595
1.78076417 -0.96257897 -0.00166741
0.92672992 1.40182420 -0.00366522
-0.58840789 -0.38862171 -0.00531313
1.81714374 -0.43002018 0.00034602
1.85752036 1.40644580 -0.00270743
-1.93702142 -1.24491998 -0.00271323
-0.39659957 -0.97155507 -0.00324897
0.44643798 1.03898508 0.00007944
1.18412543 1.49755138 -0.00337205
-1.14719576 0.31496437 -0.00276834
1.26978132 0.00002650 0.00192440
-1.73541077 -0.02891940 -0.00127230
-1.94852025 1.24246679 -0.00582157
-0.44860032 -0.31796825 0.00258554
1.85893222 0.73613362 -0.00335585
1.22704083 -0.10173792 0.00586906
1.29148665 -0.56167427 -0.00171495
1.05508030 -0.31710813 -0.00629128
-0.11500081 -1.45169744 -0.00402543
1.57695443 1.43379918 0.00402197
0.99890170 0.29048319 -0.00690517
0.97585914 0.44731463 -0.00321562
0.33600833 -0.98654336 0.00777887
1.34004327 1.19735149 -0.00398863
-0.41315109 -0.40798488 -0.00409709
-1.65097625 -0.31295225 -0.00178010
1.12731845 -0.05507235 -0.00050354
-1.79162704 -0.72196274 -0.00086510
0.24704437 0.81449978 0.00490908
-1.31320374 1.18991869 -0.00298926
0.50399242 -0.44007732 0.00437876
0.05049359 0.79220060 -0.00045183
-0.27538980 -0.98575128 -0.00012297
-1.05957584 0.26719663 0.01146964
0.34473424 1.25370434 0.00504220
0.45795617 0.39299337 0.00214219
1.10072374 -0.37602768 -0.00014328
1.08690757 1.48851115 -0.00061868
-1.58062264 0.32324793 0.00045538
1.77474012 0.95235305 -0.00056245
1.79380017 1.31776673 0.00488727
-1.21306633 0.68960110 0.00774601
1.76877240 0.73092547 0.00033498
0.62687983 -0.28707282 0.01444897
-1.08843549 0.90213733 0.00157531
-0.60183927 -0.92978207 -0.00175627
-1.05138551 1.21508713 -0.00012113
-1.04403917 -1.43342109 0.00231638
-1.85529970 1.40987148 -0.00248862
1.32370764 -0.83205159 0.00290395
-0.36422951 -1.13098214 0.00332865
0.06865886 1.02058465 0.00635426
1.49461848 0.71961129 0.00345074
1.38456923 0.35291016 -0.00850369
-0.64839907 -0.83886647 -0.00808053
-1.99911977 1.43293471 0.00663495
0.56985650 -0.94655300 -0.00287430
-0.81486340 1.30282646 0.00150583
0.76145805 1.47004007 -0.00677474
1.57352883 -1.38965994 -0.00738006
0.10039442 0.58209610 0.00599081
1.28192329 -1.04792696 0.00237408
0.53990864 -1.03413520 -0.00327857
0.86076142 0.51949797 -0.00167272
0.60832566 1.15558445 -0.00116017
1.03465815 -0.94577571 0.00296568
-1.95253193 0.81402557 0.00189289
1.17725460 -0.12927815 0.00015279
0.25966912 0.95033704 -0.00396648
-0.42268413 0.48332463 -0.00125862
1.57394981 0.80656289 -0.00349921
0.20592136 0.30343429 -0.00229178
-1.40702535 0.27580670 -0.00182627
1.90153577 0.02064183 -0.00166128
-0.41420122 0.29083535 0.00363717
1.25535849 0.36473786 -0.00118665
-1.57728103 -0.92948597 -0.00052599
-1.42740037 -0.50614000 0.00795185
1.44559412 -0.48191835 -0.00319587
-0.06882729 0.16621682 -0.00615428
-0.35892041 0.06428745 -0.00878047
1.63487910 0.85899069 0.00747149
-1.23471785 -0.00931076 0.00752599
-1.95535111 0.72054456 -0.00389570
-1.10728334 0.64852519 0.00908053
-0.70685721 -1.43304497 -0.00161765
-1.82675526 -0.25590554 0.00286557
0.37068156 0.61540219 -0.00346204
1.19736831 -0.41502284 -0.00445744
-0.00915342 -0.67607055 0.00578153
0.45752972 -1.14239319 0.01001212
0.50441820 -0.39715136 0.00288990
-1.29161756 0.54838308 -0.00000431
-1.60442265 1.10327698 -0.00033639
0.99331462 -0.56355131 0.00071432
1.56703673 -1.40876726 0.00018191
1.56805874 -1.11885862 0.00534125
-0.54109806 0.41274226 -0.00299554
0.82691439 -1.36854956 -0.00029365
1.21071296 1.36011732 0.00166749
-0.61062912 1.05809381 0.00262788
1.48061633 -1.38874636 0.00396180
0.38901270 -0.48274637 -0.00079240
1.34363897 -0.67662832 0.00008864
1.07137471 -1.15050233 0.00074352
-0.93587384 0.79347550 -0.00462741
-1.28127902 1.30717910 0.00102504
-0.56746365 -0.04057005 0.00563365
0.70513098 -0.95878749 -0.00339331
1.27195850 -1.30019289 0.00380886
-0.79248616 -1.39747565 -0.00299238
-1.62026136 0.18660748 -0.00414573
0.52880176 -0.70402335 0.00720470
1.38002741 -1.09126702 0.00290578
1.89126536 0.25271570 -0.00418390
-1.55290536 -1.05273757 0.00139463
-1.53549613 0.56622664 -0.00290393
1.00595958 -0.32842915 0.00099183
-0.40077105 -1.36078004 0.00414332
0.14377858 0.34593390 0.00047804
1.39052388 1.26232498 -0.00123564
0.05704026 0.35798803 -0.00401088
-0.99312436 0.60276078 -0.00063779
-0.31802608 -1.10166261 0.00820288
-1.03913545 -0.81638116 -0.00200993
-0.75654459 -0.85735873 -0.00989188
0.21800660 0.39524137 0.00400388
1.48973228 -1.24664885 -0.00373418
1.48088132 0.40350960 0.00384370
0.02160295 -1.30161978 0.00099651
-0.56068648 1.31537326 0.00453928
-0.77198502 -0.20102314 0.00588137
-0.21990758 1.07566766 0.00122196
-1.71813017 1.41312651 -0.00493896
0.70663487 0.12247573 0.00326143
0.88105759 0.54298321 0.00065041
1.56998450 -1.32077263 -0.00017733
-1.70531402 -0.10208621 -0.01071463
1.96845693 -0.41808664 -0.00008682
1.89341545 -1.35725968 -0.00280472
-1.39049255 -0.93564620 -0.00121394
0.88386072 0.88817433 -0.00322709
0.47063860 0.08281753 0.00311851
-1.36846335 0.29810192 -0.00132082
-0.63990802 -0.22861847 -0.00214811
-1.32217292 0.91734904 -0.00247851
0.00369350 -1.01867060 0.00335232
0.61364659 -1.09213877 -0.00172104
1.09348903 0.49910836 0.00202508
-0.30565273 0.58993307 0.00052340
0.50730383 -1.41169753 -0.00098517
0.39984815 -0.83626818 -0.00614497
0.31288435 0.91302827 -0.00148242
-1.40009575 -0.82759251 -0.00475888
1.94134299 -0.21595950 0.00289177
-0.57851452 0.20900044 0.00327525
-1.83783879 1.35027314 -0.00188619
1.35306779 -1.19721930 0.00500486
0.02933846 1.33975555 0.00481720
-0.47439182 -1.03709082 -0.00197801
1.53043403 -0.59909133 0.00250966
-0.07183534 1.28709531 -0.00154141
1.67403151 0.95841634 -0.00255599
-0.67291546 -0.60273990 0.00609298
0.99196663 -0.41112643 0.00095172
-0.92683760 -0.45907022 0.00867834
-1.92189693 -1.23363449 0.00269960
0.78053188 -1.44175099 -0.00922427
-1.86693940 -0.98199965 -0.00100426
0.24434073 0.06847866 0.00257524
0.72038536 0.82279647 0.00472635
-1.24196143 -0.89993308 -0.00333809
-1.33682709 1.43387213 -0.00280563
1.14656765 -1.33346396 0.00450409
1.91132433 -1.05442296 0.00133709
1.41230894 -0.06256199 -0.00241086
1.22818926 -0.96486857 -0.00743827
1.25259765 -1.21512902 -0.00192184
-0.71684732 0.65248024 -0.00269773
1.85594317 -1.35086005 -0.00133490
1.62932565 -1.39725059 -0.00940450
1.78447484 0.85692213 -0.00244490
0.80380394 0.22770390 0.00315151
-0.10871038 -0.76877677 0.00012057
0.88664279 1.07954792 -0.00306117
-0.46587219 -0.79863223 0.00083230
0.00432092 -0.60411277 -0.00505951
-1.73835661 -0.30848636 0.00549667
1.66377928 -1.18388193 -0.00226521
-0.45022247 -0.26778673 0.00038373
-1.56679893 1.22478930 0.00177212
0.01811413 -0.54610671 -0.00341779
1.89801310 -0.75586842 -0.00342009
-1.97066418 -0.55683989 0.00190767
-1.73986516 0.68567040 -0.00097535
-0.19129566 0.25745425 -0.00104969
1.89150053 -0.17215804 -0.00432874
1.84070383 -1.30167351 -0.00003597
1.35593578 0.40682740 0.00591801
-0.84126223 -1.43034405 0.00044337
0.43031688 -1.28924654 -0.00081518
-0.69635445 -1.48613214 0.00088990
-0.69511802 -1.03709394 0.00430720
0.94423551 -1.38393453 -0.00443838
-0.06039308 -1.46354386 -0.00314220
-0.62728653 -0.60363384 0.00339796
1.81574617 0.35277636 0.00630972
-0.27708369 0.38118177 0.00080979
1.76403589 -0.39941227 -0.00268205
-1.96499007 1.48605233 -0.00002819
-0.23971411 1.32175941 0.00424027
-1.20463473 1.37373536 -0.00557363
-1.63483556 0.79000552 0.00463123
1.39353971 0.87696334 0.00407990
-0.27105483 0.25461622 -0.00413784
1.71954139 -1.01504694 -0.00133257
1.88669258 -1.03975374 -0.00020874
-1.53907955 -0.77453587 -0.00494346
1.79464489 1.03895245 -0.00318464
1.46580254 1.15125507 0.00323684
0.96969379 -0.52118784 -0.00537274
1.09051132 0.89059596 0.00262068
-0.91709603 -0.68280254 -0.00269265
-0.33478964 -0.93183166 0.00080835
-1.22012784 -0.72319634 -0.00327829
-0.31745321 0.53537512 -0.00299328
0.39073577 -1.15456079 -0.00147251
0.03083030 -0.53137556 0.00028438
0.43154923 -0.42024965 -0.00252002
-0.13440501 1.27918188 -0.00303790
-1.90219139 -1.44874569 0.00195527
1.40868882 1.08475790 -0.00106305
-0.25303002 0.22872508 0.00445356
-1.94920503 -0.22352196 -0.00012001
-1.27507519 0.15592182 0.00292728
0.49082599 -0.91709262 -0.00310519
1.42577663 0.70683737 0.00738158
0.59755858 -0.59142029 -0.00246549
-0.38548250 0.91141225 0.00373132
0.21675431 -0.94579769 -0.00042642
0.05945975 1.02014008 -0.00702562
1.43668699 1.43121321 -0.00358515
1.98644200 -0.70381181 0.00130647
-1.30906829 0.34738994 -0.00345743
-1.57427839 -0.75866275 -0.00331587
-1.00247516 -0.61214960 -0.00287787
0.96427910 -1.16548936 -0.00537305
1.48548963 0.88117333 -0.00341538
1.07522123 0.92587836 0.00760600
-1.84764583 -0.67507649 0.00742161
-0.42679530 0.55086298 0.00060615
-1.74086813 -1.39408148 -0.00210091
0.54693852 -0.31262872 -0.00387065
-0.87916512 -0.37939029 -0.00170849
-1.56049862 1.29055506 -0.00410565
-0.27644906 0.43683340 -0.00025686
1.02224004 -0.84292675 -0.00497855
-0.37874127 0.12066226 -0.00182034
-1.12355562 0.39278058 0.00478193
-0.06760886 -0.17279199 -0.00115664
0.33583565 -0.04700720 0.00159616
1.31654021 1.04975133 -0.00126400
0.44993967 0.99014069 -0.00111768
0.54564405 -0.59440067 0.00262137
-0.52939490 0.80821542 0.00489372
-0.91572682 -1.15577873 -0.00414529
-1.20238937 0.31498627 0.00392903
1.58559218 -0.28720879 -0.00089965
-0.80098913 -0.01436327 -0.00543117
0.55617751 -0.64970321 -0.00061246
1.00283177 -0.38567680 -0.00092324
-0.90003205 -0.19821340 -0.00078697
-0.25676808 -0.31700660 0.00164292
0.29093809 1.41557634 -0.00309944
-0.73091142 -0.73675404 0.00590552
-0.18389022 0.12520356 0.00387858
-1.36073205 -0.82309597 0.01102521
0.58817718 1.05908300 -0.01012477
-0.78915792 0.98529941 0.00444146
1.60183380 1.28539621 -0.00447009
1.09713756 0.03921117 0.00191269
1.65662674 -0.54832885 -0.00035423
0.46825798 0.95037011 0.00373331
-0.19778757 0.83222864 0.00013331
1.19100175 0.78639601 -0.00267087
-1.58563734 0.10515094 0.00010147
-0.84657868 -0.29413675 -0.00273134
0.27832420 0.12797872 -0.00456106
1.40177968 -0.82781504 0.00145084
0.39715630 -0.47041469 0.01138938
-1.53123418 -0.69594166 0.00080459
0.91682022 0.75582055 0.00068433
-0.94087903 -0.53516579 0.00534933
0.43791554 -0.85137736 0.00621180
1.94288540 -1.04480941 0.00089620
-0.58759048 -1.15171038 -0.00413999
-1.61234397 0.83470423 -0.00275183
-0.60506340 1.32914667 -0.00466787
-0.22477894 -0.46693092 0.00184513
-1.70683365 1.27081441 0.00029865
-1.98852737 -0.72321538 0.00117234
-0.32212018 -1.31137650 -0.00558316
1.30135724 -1.49828705 -0.00566950
-1.78659055 -0.16400807 0.00790402
-0.47882795 0.14013988 0.00284625
1.39661177 0.59094749 0.00013605
1.86509342 -0.66190213 -0.00097149
1.08973777 -1.48631890 -0.00529490
1.60864088 1.20288391 -0.00108374
-1.82021523 0.03186656 0.00508603
-0.25691452 1.23255130 -0.00040768
-1.48117529 -1.22984548 -0.00580333
-1.72147768 -0.08977974 -0.00057855
0.36740805 0.37830113 -0.00535665
1.24095229 -1.30549332 -0.00911131
1.84487274 0.88791973 0.00781818
-0.27970833 1.00268641 -0.00607469
1.81688587 0.58655049 0.00532027
-1.40127827 -0.12458382 -0.00245613
0.12778657 1.37443959 -0.00144292
1.01238134 0.23223514 0.00106111
0.54149740 0.50506145 0.54452760
0.65495834 0.45749956 0.25635067
0.48174279 0.49991070 0.28018951
0.61902470 0.42023781 0.27646527
0.79589499 0.45052678 0.39381742
0.51331097 0.33304167 0.35082658
0.52014262 0.47292168 0.43540215
0.61375470 0.46729869 0.33207298
0.69312857 0.51455337 0.35003969
0.72084464 0.31510726 0.22446947
0.50604706 0.45319330 0.32758986
0.54833965 0.40302580 0.45508729
0.70135511 0.45706860 0.35247417
0.65160118 0.51767634 0.16782343
0.55379421 0.35024631 0.36722728
0.54378632 0.45702026 0.29437424
0.61844740 0.39477551 0.26053582
0.62581156 0.37747095 0.53677806
0.63441460 0.29816709 0.32938478
0.65671265 0.34952326 0.53855171
0.62572480 0.50345543 0.31310364
0.63525701 0.32553717 0.60045318
0.45712109 0.27851170 0.41846831
0.64580510 0.35468837 0.17646614
0.72111687 0.46247154 0.40215734
0.54994803 0.32892157 0.35315213
0.51533681 0.36146604 0.50388679
0.48050263 0.24889219 0.30726943
0.64320622 0.43645270 0.25683401
0.58419179 0.35283819 0.38715886
0.62551467 0.46418889 0.52547828
0.65335184 0.39722972 0.33967776
0.54996240 0.38439743 0.07246588
0.67254703 0.28890389 0.42153649
0.58980639 0.43881286 0.41440153
0.68125270 0.41531668 0.29634942
0.60437260 0.33298211 0.39841447
0.58586216 0.23484709 0.11373487
0.50851146 0.41789696 0.17033191
0.54448964 0.32646586 0.27463743
0.57865797 0.47775550 0.24064465
0.59089608 0.40356184 0.49753069
0.62719954 0.50148812 0.23068240
0.66436745 0.31423967 0.38950556
0.66947532 0.39591761 0.17445461
0.61808236 0.47137159 0.35701051
0.65251416 0.53609595 0.37543618
0.44101117 0.41671580 0.27369256
0.64204736 0.22384598 0.52187611
0.56671290 0.48218695 0.35687759
0.51660533 0.44931192 0.36897975
0.60203216 0.42007566 0.30253857
0.49712050 0.44391582 0.41939539
0.64430955 0.55005331 0.32025114
0.44804262 0.36544634 0.23987584
0.52321479 0.39620201 0.26882036
0.54294451 0.40319275 0.37567147
0.66928211 0.32375047 0.44395263
0.61633976 0.32711513 0.53083381
0.65576035 0.30101198 0.16773954
0.65309435 0.41477169 0.39740467
0.59150139 0.32446882 0.22276343
0.55519460 0.42039583 0.37940788
0.68227806 0.61860700 0.36102901
0.59528568 0.42770558 0.17924015
0.55354779 0.43188949 0.35672957
0.60421241 0.41735144 0.45286341
0.55367095 0.48747310 0.50912857
0.71470000 0.50187850 0.20554469
0.57556331 0.32395004 0.37594085
0.66955408 0.53608803 0.45253118
0.67651422 0.38452293 0.24296805
0.68605611 0.46196546 0.27786901
0.58971203 0.55774324 0.33802216
0.66040932 0.29993791 0.44912981
0.68073694 0.49889978 0.29388092
0.57373904 0.47981059 0.40964003
0.72910425 0.31627267 0.26446426
0.61493132 0.37160047 0.35514519
0.57147312 0.30661220 0.25796572
0.66726369 0.33181119 0.39383570
0.61521347 0.42471475 0.27367188
0.58491263 0.43919844 0.31702575
0.66115798 0.47157484 0.55346479
0.58995892 0.37773819 0.47430440
0.73032433 0.48758324 0.26874145
0.61644687 0.46066504 0.43821267
0.55788061 0.44272727 0.31299338
0.70386026 0.31299918 0.43376958
0.68459419 0.31391999 0.42976117
-0.72359185 -0.36749479 0.76513260
-0.72882298 -0.33553935 0.55281369
-0.90747056 -0.36265054 0.42097721
-0.77351783 -0.30596377 0.48522356
-0.77357004 -0.22746439 0.42139656
-0.87957734 -0.19338404 0.46937294
-0.71358041 -0.36702460 0.64268980
-0.83801189 -0.28878436 0.58747366
-0.76110889 -0.36697827 0.56563767
-0.85720691 -0.36643059 0.76817979
-0.75448487 -0.27890663 0.27574099
-0.59257239 -0.12278924 0.39096025
-0.94428988 -0.20519434 0.44230606
-0.86895714 -0.31483511 0.54246256
-0.74137357 -0.30033378 0.68592948
-0.73380367 -0.26665722 0.51436340
-0.81869551 -0.35123694 0.51330178
-0.82110349 -0.33661433 0.59615698
-0.59938019 -0.36913056 0.60065950
-0.83942985 -0.20646287 0.47029048
-0.65420108 -0.25017457 0.34795784
-0.57928167 -0.25331724 0.11540153
-0.79635351 -0.38313592 0.50361081
-0.73174173 -0.16990004 0.51365199
-0.91872078 -0.32790583 0.50128075
-0.78989899 -0.32217388 0.41716104
-0.80690176 -0.28453833 0.43822298
-0.78001340 -0.23845582 0.08860278
-0.89521776 -0.33350255 0.26303100
-0.82415745 -0.38279325 0.32769519
-0.73917796 -0.31322960 0.47869512
-0.89850611 -0.31315133 0.43521342
-0.86729122 -0.21525869 0.50500815
-0.70570658 -0.33674965 0.54295613
-0.88619442 -0.18590544 0.74603929
-0.92276036 -0.19789736 0.53405463
-0.73151507 -0.30157228 0.40757589
-0.89638875 -0.39733630 0.46438013
-0.83151596 -0.43475227 0.29092207
-0.87580769 -0.44548599 0.48546735
-0.75333383 -0.18956675 0.35177967
-0.60063934 -0.32432628 0.53463039
-0.61323107 -0.31692448 0.52905085
-0.89879465 -0.31954037 0.56775866
-0.88246379 -0.43275161 0.68636402
-0.76426381 -0.25812384 0.23484189
-0.82342860 -0.41176939 0.60162892
-0.72537719 -0.30757803 0.52552571
-0.84043791 -0.28573512 0.44754908
-0.73807794 -0.21334149 0.47383200
-0.81901810 -0.23938132 0.77128351
-0.64351928 -0.37151426 0.51613840
-0.93004377 -0.07866781 0.36235048
-0.87617504 -0.33688026 0.48839819
-0.89393823 -0.24021030 0.70335128
-0.75824559 -0.34976456 0.57412659
-0.74199355 -0.30511498 0.48349027
-0.62363485 -0.24688710 0.26165274
-0.67388994 -0.44637953 0.61607968
-0.63686466 -0.17606460 0.34186483
-0.98831231 -0.32797943 0.33623098
-1.09599406 -0.31550353 0.42974052
-0.71927235 -0.27936618 0.21616990
-0.66792878 -0.23433399 0.33982674
-0.99468046 -0.21506977 0.43734426
-0.71172432 -0.33613497 0.57221764
-0.76650821 -0.32629284 0.52638373
-0.79702975 -0.27430960 0.39621059
-0.81325090 -0.28428844 0.68094375
-0.77291459 -0.37114633 0.34792844
-0.78255689 -0.27815842 0.44201124
-0.89344048 -0.20075783 0.39972550
-0.76153939 -0.44812120 0.47475268
-0.72205963 -0.17936882 0.44729916
-0.66769622 -0.42689127 0.19307683
-0.89882785 -0.36596614 0.49523202
-0.80472814 -0.33362322 0.60759538
-0.83197998 -0.36133297 0.37500064
-0.77759814 -0.31404790 0.36180453
-1.04625462 -0.34155655 0.41856175
-0.71361274 -0.32636013 0.39154752
-0.91204560 -0.30513818 0.45769460
-0.96006224 -0.21936483 0.36340134
-0.79040860 -0.37084362 0.50511613
-0.74722126 -0.32104893 0.21388849
-0.81041864 -0.25568247 0.49199984
-0.66710420 -0.28085901 0.46374082
-0.95293442 -0.34795596 0.66535455
-0.78229993 -0.25527448 0.74054626
-0.84047681 -0.35074971 0.45955100
-0.79607865 -0.32023992 0.50510022
-0.80451862 -0.28781675 0.57857078
-0.65090503 -0.25720086 0.31653626
-0.90991175 -0.35654700 0.26762525
-0.81756511 -0.27294160 0.35536106
-0.86507209 -0.22489125 0.27385645
-0.79996718 -0.34931716 0.11227941
-0.77464974 -0.29361663 0.46902284
-1.01254416 -0.33232158 0.24445700
-0.79111103 -0.15302527 0.27793343
-0.93482665 -0.25811048 0.41175996
-0.87789235 -0.32855481 0.60215570
-0.81042995 -0.28674523 0.42184440
-0.86570273 -0.23230657 0.18213738
-0.68470604 -0.24292221 0.35304877
-0.77409123 -0.38431043 0.40356464
-0.81334645 -0.38686396 0.54063663
-0.86388360 -0.28044336 0.53684060
-0.92940525 -0.28631360 0.54912704
-0.76781603 -0.27916610 0.41500757
1.22145723 -0.77972310 0.20225040
1.27522183 -0.70172378 0.29467504
1.19290284 -0.62384113 0.12951085
1.22953213 -0.64708204 0.21257067
1.22475333 -0.75746394 0.29297771
1.21252216 -0.75804458 0.22012300
1.20253457 -0.72183604 0.39065515
1.21605422 -0.72874207 0.13199306
1.25832809 -0.73696189 0.37334566
1.22023791 -0.67664242 0.09872646
1.14607578 -0.68226612 0.18965889
1.24043767 -0.71695525 0.15176460
1.30796763 -0.71352616 0.24603513
1.21399247 -0.66352568 0.30298916
1.15059736 -0.74818288 0.21022374
1.19102010 -0.75364936 0.24586523
1.30165882 -0.72348012 0.24134062
1.24101395 -0.65600550 0.15829223
1.23289890 -0.67586961 0.36364792
1.19244710 -0.81246772 0.20883562
1.19065928 -0.75843290 0.29253495
1.22540229 -0.73330042 0.23062296
1.14392651 -0.70711152 0.15840181
1.19286246 -0.70774660 0.18665474
1.19887672 -0.79795635 0.20383586
1.18270130 -0.75726081 0.21446835
1.22196024 -0.76817299 0.31515908
1.17596735 -0.63755505 0.31504813
1.19514985 -0.69596821 0.33282545
1.22717229 -0.75287452 0.11665702
1.14539719 -0.68098652 0.23287122
1.13171802 -0.75954896 0.13065074
1.20716498 -0.64687501 0.25335072
1.27915585 -0.69184208 0.22656434
1.18989859 -0.72267547 0.24291630
1.15472377 -0.59453762 0.19669813
1.08512340 -0.68094539 0.18477891
1.13509536 -0.81880421 0.30647464
1.13182569 -0.58523836 0.19273231
1.16863960 -0.66103859 0.27980220
1.22728374 -0.71879604 0.25402788
1.21994468 -0.81559001 0.19096261
1.19029675 -0.71122060 0.11106050
1.20439195 -0.71336843 0.31382015
1.25178116 -0.71853628 0.23030696
1.24996503 -0.76582964 0.34575927
1.19470542 -0.73561534 0.23374012
1.18134619 -0.69771473 0.29481804
1.15951399 -0.69756106 0.15017844
1.03106121 -0.71974608 0.37859682
1.20955774 -0.66928054 0.13585184
1.29083293 -0.60080862 0.22029437
1.25539517 -0.68788297 0.30284045
1.12800740 -0.73025265 0.29868047
1.15399921 -0.80690838 0.27691105
1.15857638 -0.68904925 0.31171615
1.28478996 -0.71916088 0.23997994
1.11493460 -0.65508559 0.32670028
1.24298731 -0.76979524 0.36059558
1.12709092 -0.62075769 0.28021550
1.21154591 -0.67838015 0.18947618
1.21259660 -0.67229194 0.34898360
1.25842224 -0.69420149 0.17920011
1.13716245 -0.73709117 0.23137501
1.21649608 -0.75110239 0.13554619
1.22437952 -0.73742087 0.18199102
1.30317250 -0.83322210 0.23733002
1.21045246 -0.75155875 0.27981925
1.11602477 -0.67746728 0.28293341
1.23274734 -0.69423197 0.36708539
1.26491207 -0.56103807 0.21276334
1.28742413 -0.80809357 0.34301775
1.19254859 -0.65140254 0.16725257
1.07775017 -0.59864314 0.22828400
1.19593655 -0.69057636 0.31268816
1.22703033 -0.65743556 0.29479141
1.31244050 -0.66664580 0.31792234
1.24384991 -0.66255069 0.25721136
1.08840213 -0.74470913 0.20985441
1.12100583 -0.68599208 0.12454891
