ply
format ascii 1.0
element vertex 360
property float x
property float y
property float z
end_header
0.08432188 -0.09701091 0.10976159
0.24636019 -0.14634790 0.12965244
0.21239797 -0.01477057 0.11766112
0.20143590 0.12308815 0.02369282
0.13634029 0.06408855 -0.04218879
0.22352379 -0.12233834 0.04422902
0.27005716 -0.20232558 -0.04240845
0.08159331 -0.12964709 -0.01222685
0.30869603 -0.09870366 0.18748596
0.14195899 -0.07122615 0.05370796
0.21171902 -0.16678196 0.06766487
0.20161197 -0.05724069 0.10283483
0.12740533 -0.11879005 -0.00824411
0.04255689 -0.09362344 -0.00440402
0.11168614 0.08374563 0.08594484
0.15710184 -0.00795140 0.15808222
0.32870429 -0.08517736 0.19586719
0.20311621 -0.16180990 -0.03361168
0.24077045 -0.00410519 0.16247384
0.12140952 -0.11999708 -0.05161569
0.03064005 -0.14950758 0.16778244
0.28380744 -0.11789024 0.14106197
0.12724755 -0.07983967 0.11592981
0.17323732 -0.16295385 0.09295862
0.18133565 -0.13166665 0.09531674
0.15423559 -0.04875182 -0.02457225
0.26092160 -0.12740074 0.01468398
0.00736029 -0.04560516 0.05920520
0.26168921 -0.19575611 0.05047645
0.11884619 0.01246341 -0.06688486
0.17846722 0.01902500 -0.03495960
0.21815079 -0.15832592 0.04522013
0.16839692 0.02593018 0.07520593
0.11230155 -0.05593353 0.05203969
0.27647726 -0.10741096 0.15576190
0.18496063 -0.06616122 0.13241425
0.15386523 -0.13714480 0.08419544
0.17280494 -0.07520096 0.01784884
0.13107928 -0.04143835 0.21153766
0.03379719 -0.01129846 0.11531398
0.26627413 -0.02710135 -0.00218278
0.19227355 -0.13992276 -0.09110251
0.16725973 -0.06030657 0.02939551
0.23600885 -0.19968909 0.12236777
0.16626657 -0.08765928 0.10655229
0.06460187 0.08713455 0.16770415
0.26897446 -0.02864880 -0.00039184
0.23748756 -0.12275245 0.06473577
0.16301215 0.01473385 0.09585566
0.15293719 0.02866498 0.05244865
0.15274970 -0.14558437 0.15969809
0.20022061 -0.10458800 -0.11006823
0.09244093 -0.09044763 0.09488773
0.32366773 -0.09079725 0.09071187
0.33820534 -0.23558313 0.22069114
0.12527626 -0.20423034 0.11062963
0.17679614 0.01629496 0.11311097
0.20698877 -0.07419818 -0.01141167
0.27761996 -0.20562600 0.02240855
0.26964751 -0.15202626 0.11087576
0.25163213 -0.04600955 0.04246724
0.20408966 -0.01460781 0.03751781
0.29159564 0.08133150 0.15046527
0.25024198 0.06849184 -0.04368781
0.41084506 -0.11991201 0.06555089
0.07886380 -0.06677768 0.08594905
0.27709431 -0.29479801 0.09231255
0.25446230 -0.23969695 0.15510034
0.18927165 -0.14451398 0.07794686
0.12920593 -0.06199872 0.02224905
0.14341922 -0.19715814 0.10167193
0.20925721 -0.12837540 -0.00189525
0.05372222 0.05374389 0.09426899
0.15217525 0.04487325 0.01151635
0.11152607 -0.14919813 0.05535984
0.17411669 -0.11276333 0.05847071
0.17628551 -0.18151718 0.09803902
0.16694786 -0.11534077 0.08613880
0.24261468 -0.14787523 -0.01806778
0.10672684 -0.21378906 0.05657577
0.16927707 -0.15513796 -0.06865625
0.28526448 -0.08181353 0.06708360
0.19822659 -0.16089410 0.07290236
0.15065298 0.01231427 0.10460453
0.08725925 -0.12739711 0.03059263
0.20814324 -0.16505202 -0.09894161
0.15925535 -0.05189772 -0.04792527
0.29992713 0.01977335 0.01899030
0.37530831 -0.13342914 -0.03937603
0.06474313 -0.01959230 -0.00866279
0.22679796 -0.04008796 0.00399631
0.21968457 -0.17674032 0.10376409
0.12723208 -0.18292875 0.08962110
0.08863744 0.03077524 0.16987853
0.04987940 -0.11573021 0.03012364
0.35612362 -0.05961110 0.00147691
0.17050663 -0.09635793 -0.02739943
0.21363823 -0.10831941 -0.02382988
0.28997193 -0.02035887 -0.02937422
0.08483552 -0.13465247 -0.06017338
0.05055667 -0.03452501 0.03912562
0.13174474 -0.07927364 0.00165050
0.13416377 0.05514372 0.05987260
0.16410379 -0.18988325 0.08667784
0.15647210 -0.04230424 -0.07811826
0.14677101 -0.09020047 0.08912626
0.20464675 -0.10692329 0.14822232
0.23585957 -0.22678056 -0.07035979
0.17011341 -0.05489504 -0.05667539
0.07751624 -0.09031284 0.06672854
0.18694220 -0.01907361 0.06007562
0.08344452 -0.01746462 0.13837170
0.29563236 0.00065394 0.07299551
0.19151963 -0.03016071 -0.08810934
0.18056235 -0.10803093 0.08229576
0.21586298 -0.08452962 0.02027894
0.07592353 -0.08485352 0.01599449
0.12589705 -0.01191382 0.14706987
0.11189236 0.03762594 0.12541128
0.21234807 -0.13293940 -0.02350918
0.76802594 0.17133037 0.27371364
0.72798017 0.24158547 0.27562266
0.72335598 0.20350432 0.15468046
0.65779568 0.16695780 0.28150905
0.69641426 0.24107421 0.23138821
0.72848342 0.23511220 0.13952518
0.57966926 0.26216420 0.17790943
0.73094355 0.27477525 0.12442223
0.63310016 0.31344438 0.16589865
0.75317304 0.15228782 0.14048227
0.76605072 0.17270031 0.23768569
0.67477924 0.20687171 0.26019744
0.64580695 0.29828537 0.17879725
0.68884122 0.30473880 0.25626518
0.71771836 0.13503453 0.27123150
0.64278614 0.31195258 0.16185702
0.66921756 0.25504760 0.19541926
0.81467161 0.21337954 0.16659661
0.69679237 0.28296746 0.20242222
0.68337257 0.31230523 0.17551230
0.66672547 0.23888138 0.23011197
0.59053720 0.32291364 0.18485206
0.66797361 0.23572499 0.13822147
0.65208959 0.22248680 0.21590477
0.73237560 0.25198570 0.18111798
0.74513684 0.17588301 0.17880078
0.71160227 0.35263534 0.19663140
0.63523982 0.19649028 0.25136099
0.79007356 0.29120120 0.12470589
0.68349435 0.29003732 0.24502201
0.66515955 0.37759251 0.20882547
0.84330076 0.24640623 0.27096503
0.72965090 0.31813980 0.16406476
0.70472062 0.19729430 0.19160066
0.69474679 0.29416964 0.13853194
0.69364634 0.14118069 0.18589745
0.62323859 0.28951731 0.17049886
0.72080616 0.24583440 0.19254250
0.70031723 0.19017385 0.23068147
0.62776188 0.31291836 0.07503438
0.65111890 0.27952238 0.23915781
0.59414281 0.22801978 0.19822532
0.70900269 0.24425903 0.15225483
0.68748840 0.27689725 0.24507282
0.69884022 0.20827174 0.22449192
0.63654026 0.19903165 0.15328417
0.68400208 0.24950771 0.29245496
0.70264114 0.31098027 0.17966595
0.64533625 0.22071170 0.16344194
0.76115128 0.35406393 0.24992991
0.70874021 0.19443504 0.17213851
0.67354433 0.20620662 0.21100388
0.73749019 0.38306880 0.20089773
0.69023719 0.27670728 0.16500933
0.74423954 0.30371530 0.20762084
0.72547756 0.24658630 0.18527674
0.73386627 0.32519379 0.21421792
0.58056299 0.34760943 0.23049867
0.75384149 0.22701811 0.22638272
0.71436226 0.27925372 0.26282883
0.59021772 0.29022364 0.18366844
0.66977213 0.24964070 0.22141054
0.70914293 0.24372013 0.22957573
0.81623347 0.34443989 0.19346281
0.73586599 0.32890305 0.16999299
0.77584958 0.21599872 0.22191882
0.80239217 0.23963190 0.17640271
0.63201600 0.31353132 0.16934955
0.68044709 0.27130810 0.24969374
0.74311142 0.23707375 0.09420440
0.73497994 0.27151697 0.22973220
0.66094827 0.23628874 0.26186809
0.62486853 0.22834611 0.11213248
0.74974588 0.29022538 0.15067996
0.61077258 0.22955447 0.19787311
0.65918861 0.31949742 0.15113881
0.70020081 0.34176752 0.17490448
0.70516837 0.34838662 0.13659624
0.68194829 0.18203217 0.21243959
0.80267553 0.22104611 0.19323430
0.82622363 0.26828972 0.22998926
0.72612745 0.23654487 0.23917416
0.70951596 0.25813931 0.18165530
0.74874246 0.28825676 0.16135031
0.66064364 0.25793675 0.21671905
0.60902930 0.27922626 0.13545112
0.61020638 0.20617204 0.20502601
0.75557107 0.21944501 0.17290420
0.73883687 0.26389499 0.25372940
0.74735094 0.20069698 0.14879152
0.77334035 0.15252199 0.22709050
0.69643028 0.19843321 0.30327099
0.65997116 0.21138587 0.17436041
0.66545821 0.27264110 0.21735457
0.55662259 0.26268037 0.24907798
0.72658063 0.30270465 0.12386724
0.73456139 0.25281410 0.14134926
0.68140486 0.29244152 0.14847200
0.62885282 0.25882309 0.24674470
0.66057239 0.25516136 0.19481907
0.74926228 0.30101130 0.10935080
0.62824244 0.29040050 0.26645883
0.75638307 0.27223252 0.15277604
0.72600324 0.26249691 0.18342377
0.65227620 0.26379976 0.14979743
0.63683062 0.33991699 0.19921614
0.74416611 0.28382986 0.21951421
0.65943998 0.36033342 0.22482266
0.70035710 0.27027628 0.17160206
0.76130666 0.24574970 0.11738941
0.69494842 0.28692589 0.13820043
0.70412610 0.26764908 0.11482353
0.58358140 0.23405031 0.19084051
0.75183927 0.19916682 0.24844219
0.68618388 0.26669797 0.29390435
0.69201860 0.24826678 0.17207875
0.62426363 0.23358411 0.11701621
0.67014479 0.14685855 0.22135465
0.66384366 0.31283076 0.17185972
0.68441441 0.21959311 0.14246510
-0.10431568 0.18379417 -0.02350708
-0.15777018 0.26933493 -0.06041739
-0.14833486 0.30202868 -0.14580763
-0.25207020 0.31391672 -0.10176761
-0.15633909 0.26826180 -0.03654540
-0.21822333 0.23942423 -0.08319591
-0.29581798 0.27306807 -0.15508121
-0.19547878 0.22659370 -0.05713219
-0.16033154 0.29051049 -0.07636932
-0.20447626 0.28853332 -0.02898190
-0.24211371 0.31322713 -0.10374025
-0.24533012 0.35200200 -0.04917644
-0.18591738 0.29603022 -0.05080960
-0.13379765 0.30765412 -0.12349289
-0.21816997 0.27875436 -0.08792864
-0.24783299 0.30828026 -0.03949082
-0.15059746 0.30846146 -0.10594688
-0.21223068 0.25898510 -0.08114804
-0.15456311 0.21620491 -0.07767099
-0.13309464 0.24750490 -0.03794133
-0.18359676 0.21358487 -0.10991484
-0.14741034 0.26397382 -0.06322740
-0.19589741 0.22254314 -0.02458416
-0.17848979 0.30061255 -0.06853341
-0.22660744 0.22018142 -0.03427893
-0.30045632 0.27806058 -0.05274416
-0.18966750 0.28223441 -0.10502441
-0.23859237 0.25193499 -0.05101870
-0.16565447 0.29640751 -0.04112428
-0.24999712 0.29096711 -0.04374584
-0.15347525 0.33314277 -0.05647077
-0.27091387 0.31974675 -0.09752921
-0.21012000 0.31118980 -0.02816058
-0.23496610 0.21597001 -0.02543908
-0.22392209 0.40083526 -0.08318045
-0.25249505 0.20901363 -0.10852306
-0.22745325 0.27617805 -0.05315347
-0.20811636 0.23814010 -0.05757017
-0.23981333 0.30131272 -0.07674968
-0.24798937 0.30305280 -0.01433544
-0.13470164 0.25455567 -0.02657975
-0.15817504 0.30406675 -0.09839623
-0.22152158 0.29265594 -0.05861215
-0.21814252 0.30135005 0.01539921
-0.13668254 0.26703349 -0.13093857
-0.16456058 0.34773549 -0.05976640
-0.28902272 0.30688373 -0.08293875
-0.23518660 0.25224887 -0.06458795
-0.24986387 0.20261404 -0.07569488
-0.18649337 0.20453588 0.01905171
-0.17245765 0.30422633 -0.03691489
-0.28747146 0.24307218 -0.04929436
-0.20915800 0.28236179 -0.04152441
-0.16561960 0.33477730 -0.08002608
-0.16131556 0.26795586 -0.05785571
-0.19556598 0.27592588 -0.07343882
-0.20148632 0.29811182 -0.16175667
-0.20176990 0.23291508 -0.00924413
-0.19191018 0.24326655 -0.05070198
-0.20971538 0.30269553 -0.14640142
-0.20885616 0.22268765 -0.01408193
-0.17661579 0.27240840 -0.07030431
-0.20469960 0.25433277 -0.10738263
-0.27256123 0.29966943 -0.10565126
-0.20431998 0.30511002 -0.04091012
-0.21858160 0.29375465 -0.08879844
-0.25892374 0.28767785 -0.04055682
-0.16500839 0.29485285 -0.14237491
-0.21713169 0.23379535 -0.03051659
-0.25335553 0.29282430 -0.05513063
-0.20133813 0.28218922 -0.04028611
-0.26445055 0.30843280 -0.12815031
-0.22518519 0.23055546 -0.04124999
-0.26296852 0.32948847 -0.09946827
-0.11842303 0.32824172 -0.02311041
-0.20609186 0.31393837 -0.08976848
-0.27221901 0.28303517 -0.03803618
-0.21035794 0.26093370 -0.07304990
-0.21364141 0.30979307 -0.07464545
-0.21196825 0.32283739 -0.06697968
-0.17637251 0.25808013 -0.06374372
-0.23329690 0.31482775 -0.07495860
-0.25367435 0.26845368 -0.08736897
-0.16238512 0.30825417 -0.07800956
-0.24940051 0.25895943 -0.07632303
-0.21596942 0.25890454 0.06981507
-0.24047581 0.26579644 -0.03273435
-0.16041876 0.28266039 -0.05150174
-0.24497003 0.34830856 -0.08158657
-0.18667700 0.24540356 -0.03830735
-0.25516951 0.32407340 -0.08256376
-0.21087817 0.26638956 -0.05363514
-0.20577588 0.20501071 -0.14878801
-0.23278160 0.30385949 -0.01895021
-0.20449240 0.31506003 -0.06109369
-0.22098525 0.28348889 -0.00891886
-0.16009853 0.31417102 -0.11400149
-0.19747396 0.17034843 -0.03409577
-0.22862883 0.31525087 -0.00672247
-0.22323129 0.29501066 -0.06474617
-0.26874118 0.26775181 -0.05861970
-0.22175680 0.34026006 -0.09536936
-0.27848604 0.28079625 -0.01656596
-0.18550655 0.28409831 -0.05145551
-0.19981369 0.28245017 -0.07531476
-0.15336627 0.27513223 -0.11636513
-0.19635471 0.25073883 -0.10371581
-0.16950148 0.24111866 -0.10763838
-0.21806868 0.23258290 -0.08733918
-0.20280203 0.22564115 -0.12564343
-0.13388576 0.30850502 -0.07735627
-0.19168532 0.28533954 -0.05915503
-0.21798285 0.25822344 -0.08573134
-0.14191370 0.28087042 -0.04652191
-0.16426992 0.20506985 -0.02836320
-0.17588254 0.20222324 -0.01500558
-0.17595939 0.29778177 -0.08882298
-0.23920457 0.25491287 -0.08692027
-0.18048270 0.30299297 -0.01952013
-0.19860803 0.26906786 -0.07609041
