ply
format ascii 1.0
element vertex 1140
property float x
property float y
property float z
end_header
-0.08653126 -0.06500646 -0.45113337
0.19727988 0.22152781 0.36688307
0.59924429 0.03341458 -0.61687541
-0.21572456 -0.10180282 -0.32898794
0.41678917 -0.18861597 0.95194658
0.29980504 -0.07720386 -0.65276749
-0.11693679 -0.11066121 -0.46830244
0.60750653 0.13524129 -0.46466314
0.21885082 -0.03660700 0.97573638
0.07077223 0.18679042 0.32638721
0.36161263 -0.47867121 0.48557948
0.43009076 -0.08937201 -0.63889304
0.80405952 -0.22689561 -0.18247122
0.64502657 -0.03299277 -0.49533469
0.91928754 -0.09955590 0.37644886
0.63650755 -0.20152509 0.80382073
0.80313879 0.10664439 0.08847922
0.31835707 -0.12697213 1.01110584
0.17626461 0.13139318 -0.59208696
-0.23425697 -0.26184177 -0.19625853
0.66390458 0.13643985 -0.41951387
0.62162521 -0.38613954 0.54562459
0.28429543 -0.07466039 -0.67226655
0.10785640 -0.09868808 -0.68800527
0.48609957 0.14596080 -0.40379620
0.20953094 0.02699114 0.89470521
0.59511811 0.24143804 0.32496949
0.30124226 -0.22323742 1.03459808
-0.02562791 -0.31255463 0.96191889
0.29684171 -0.40210366 -0.30540970
0.14081157 0.18143261 -0.42211874
0.28169035 -0.02129030 -0.65715703
-0.21677024 -0.03310000 0.60698340
0.34022611 -0.49119934 0.49166247
0.41253307 -0.47525270 0.23788513
0.31319058 0.02433387 0.85450016
0.47467390 -0.20505819 0.91340307
0.70826721 0.18857515 0.28948428
0.59861858 -0.27627896 0.80940085
0.71987966 0.15820006 -0.20385852
0.17256756 0.20964218 0.37105563
0.52998563 -0.18746975 -0.59148386
0.48890085 0.22138651 -0.27391043
-0.21969092 -0.05708601 0.63254890
0.01782742 -0.04901763 -0.50576355
0.29651566 0.15395152 -0.49497250
0.15197297 -0.51845815 0.44814633
0.58699584 -0.36496282 0.70815863
0.70921460 -0.25229867 -0.27261619
0.06445989 -0.06711827 0.99928008
-0.13538945 -0.27714864 0.87347247
0.23762834 -0.18861680 1.02553799
0.29605552 0.17365436 -0.45239568
0.56132060 0.22834274 -0.19633764
0.78080670 -0.12633418 -0.29457856
0.63235960 -0.18359187 -0.44667022
0.42151713 -0.45982717 0.26025800
-0.31424496 -0.20758416 -0.03963069
-0.03522958 -0.20398717 0.91279485
0.00834583 -0.24846222 0.99422558
-0.23515840 -0.22350725 -0.28457060
-0.38115498 -0.04557809 0.23541483
0.68019989 0.21874053 0.05417027
0.59225193 0.14924675 -0.41221817
0.88101969 -0.12157722 -0.14291008
-0.37042493 -0.14091742 -0.00280809
0.94699895 -0.13547044 0.04618725
0.48292895 0.12889910 0.70135242
0.17729048 -0.21043422 1.03356965
0.39375514 0.26231523 0.39033842
0.20785776 0.06280577 0.85583600
0.84081314 -0.00897029 0.45093117
0.51408292 0.09218876 -0.56036850
0.62044626 -0.24692705 0.78586368
0.17198194 -0.13409949 1.04306874
-0.11480666 -0.39520563 0.68721991
-0.24307817 -0.15612023 0.64348884
-0.17931869 0.05308516 -0.24506888
-0.29150081 -0.24827691 -0.00905175
0.42887419 0.15300892 -0.40568208
0.86324419 -0.03511199 -0.20967250
0.55137417 -0.41570608 0.39607177
0.32292822 -0.26762217 -0.53300148
-0.06129207 -0.18313780 0.86242661
0.25739230 -0.17245557 1.01183055
0.40391076 -0.21713896 0.95305712
-0.00024689 0.14047297 -0.37818533
0.83583000 0.05422881 0.31431375
0.04246639 -0.05088893 0.95753395
0.49028406 -0.43047917 0.16513268
0.04184108 -0.33361861 0.91430812
0.34780529 -0.38466687 -0.34045542
0.47665756 -0.44188564 0.29191100
0.36849416 0.22095265 0.53786496
0.73099729 -0.24649435 0.67280418
-0.28340109 -0.01970315 -0.19075357
-0.08513744 -0.46816854 0.50046397
0.41738075 -0.16521100 1.01171907
0.47457607 -0.16616839 0.97181610
0.29895510 0.00754204 -0.67059240
0.49480492 0.02127513 -0.67004715
-0.19214020 -0.06206173 -0.32739975
0.55803801 0.07340202 0.78154928
0.35335785 -0.01436763 -0.64737453
0.05707001 -0.26723708 -0.49215098
-0.10440433 0.05535834 -0.34908936
0.89640324 -0.24417736 0.34321692
0.00656546 0.07013381 0.76628463
0.23044272 -0.29363859 0.94488616
0.13281899 -0.04971626 -0.58597447
-0.05326220 -0.50556160 0.24924531
-0.06443905 -0.35914609 0.85848790
-0.26613574 -0.17177549 0.62882157
0.92654300 -0.14185901 -0.00869254
0.02642367 -0.04067297 0.94322203
0.41582767 0.08697422 -0.50616355
0.15257570 -0.30401424 -0.41791712
0.61980618 -0.27267568 -0.37718678
0.84060466 0.02634902 0.38779139
-0.29452182 -0.05011769 -0.18226728
0.81760709 -0.26789721 -0.03407168
0.33852016 -0.41776035 -0.22813142
0.41041358 -0.17694835 0.99211759
-0.30955122 -0.28034695 0.35415896
0.20383086 -0.23751005 0.99874779
0.05116421 0.18544972 0.20667970
0.80099448 -0.19823758 0.63384252
0.03326398 -0.08868417 0.94517021
0.24312592 -0.31136093 0.96814455
-0.26525026 0.04559961 -0.07126808
-0.07229075 -0.30561598 0.94174186
0.29600065 -0.14049603 -0.62635530
-0.32847677 -0.19561242 -0.07846463
0.75865187 -0.28386345 0.58455672
-0.29497783 0.01791090 -0.08518497
0.21573049 -0.21239703 1.01316121
0.27169909 -0.00729613 -0.67595070
-0.32141231 0.02235052 0.20924243
-0.04885219 -0.02824783 -0.44700083
0.34466519 -0.11382349 1.01233879
0.76260330 0.12725940 0.26257361
-0.02058452 -0.51874295 0.16108384
0.25786010 -0.11876204 -0.63312605
-0.00736385 -0.47185256 -0.07036589
0.88647943 -0.00954941 0.29597049
-0.01234676 0.05055642 0.77772917
0.40561156 0.17779258 0.65020311
0.42954902 -0.44952302 0.10332110
0.70386694 -0.36734389 0.33619030
0.23227521 -0.16472962 1.02808999
0.18182380 -0.24291121 -0.51571343
0.44615180 0.05563583 -0.59501665
0.17909914 -0.03098685 0.97975251
0.66172517 0.23816956 0.08090237
0.17049363 -0.06360636 1.03059638
0.08733556 -0.39923831 -0.29270908
0.68150321 -0.26033589 0.71569829
0.43012678 0.25770462 -0.19662591
-0.16588696 -0.20593384 -0.43972190
0.20889650 -0.31174355 -0.43713206
0.43858086 -0.19584750 0.94426523
0.19251815 -0.12810674 -0.66576978
0.20015245 0.07378138 0.83224868
0.19420492 -0.23338167 1.02210724
-0.00642533 0.17700658 0.05477540
0.86421698 -0.13256129 0.55088936
0.05001854 0.01457045 -0.52116838
0.19838679 -0.25178213 -0.48512498
0.79583060 -0.04920878 0.68031517
0.23664202 -0.02841287 -0.64119058
0.64737965 -0.33051330 0.70723343
-0.16806953 -0.40068165 0.09371444
-0.16159804 -0.13010811 0.71540550
0.42990605 -0.05729836 -0.60289878
0.46030035 -0.31114868 0.94766191
0.19826834 -0.15612504 1.04444759
-0.28765800 -0.30688904 0.30240260
0.30488058 -0.04590578 -0.65560650
0.18643810 -0.16218056 -0.62325650
0.04353142 0.14505759 -0.44147364
0.31597312 0.07729054 -0.60574514
0.49039667 -0.08944417 -0.56785106
0.91623287 -0.22792401 0.14816615
0.59488587 -0.39357106 0.63987423
0.72024554 -0.05069789 -0.41151930
0.31879948 -0.41431400 -0.25489849
0.36262559 -0.48224147 0.47896505
0.26441950 -0.30264470 1.00113400
-0.13999354 -0.09512876 -0.42340645
-0.19083976 -0.15047046 0.71016303
0.32090478 0.02866649 -0.62765667
0.01594915 -0.40438838 0.74123506
0.15741775 -0.05582586 1.01480404
0.27524081 0.13350973 -0.54920963
-0.02263592 -0.31332445 0.95591034
-0.02906731 -0.10831826 0.84252254
0.37092068 0.28163073 -0.04996594
0.45530169 -0.17863729 -0.65982692
0.51268505 -0.33006083 0.89217336
0.48823839 0.13418475 0.68467470
0.72447433 -0.00702908 -0.44596993
0.28805537 -0.02480935 -0.67612535
0.49518046 -0.43356267 0.16463761
0.41263919 -0.32283388 0.98513919
0.25780255 -0.17289811 1.02212361
0.34999008 -0.42716784 0.82996649
0.41980375 -0.05750436 0.98554762
-0.13504263 0.07434169 -0.27898989
0.47829248 -0.15784036 0.98129315
0.47816185 0.29047103 0.21031147
0.56930977 0.20254381 -0.26364128
-0.31232031 0.01253148 -0.05855680
-0.01178232 -0.36479576 0.84563523
0.63312947 -0.10940674 -0.44894395
0.79562408 -0.04957350 -0.31351612
0.74513301 0.11125698 -0.38734855
0.39303857 -0.05426513 0.95692663
0.31927589 -0.32998554 1.00656670
0.28962332 0.03738156 -0.66140210
0.75775709 -0.33148720 0.46377391
0.02649068 -0.44777715 0.63692293
0.72518743 0.18360447 0.25758823
0.61509348 -0.33610714 -0.23774028
0.35663520 -0.00018756 -0.61816797
-0.19399755 -0.08320245 0.66986466
0.17887841 -0.09287069 -0.69748398
0.18319618 -0.18923637 1.02004461
0.06319695 -0.50628757 -0.02225514
-0.00765440 -0.41385887 -0.21167652
0.44605721 -0.16827623 0.97722711
0.51467058 -0.15740427 0.95541322
-0.32782870 -0.24487506 0.35241799
0.37737658 -0.01224005 -0.67678249
0.25428320 -0.47191672 -0.10984703
0.45361258 -0.04872360 -0.62473559
0.12095453 0.13831530 -0.55384577
-0.40251684 -0.11607566 0.23619192
-0.03670819 -0.01217949 -0.45309227
0.26794988 -0.18304639 1.03307099
0.15990680 -0.29622447 0.90683528
0.08957599 0.08414173 -0.57839510
0.43720847 -0.27250179 -0.55445383
0.50417211 -0.37920732 0.83982271
0.58117067 -0.39334752 0.09912785
-0.27791249 0.02315926 -0.12546928
0.18491839 0.08026634 -0.64257711
0.33597485 -0.45928285 -0.11409988
0.50445025 -0.43701732 0.38900016
-0.33475955 -0.20726508 0.46533607
0.80441372 -0.31240258 0.38824043
0.62175715 0.22343172 -0.17331623
0.51648625 -0.12842735 -0.58847849
0.75198085 0.12940698 0.34484014
0.47660409 0.07138708 0.79520951
-0.19696048 -0.28260639 0.79728325
0.74025827 0.10522437 -0.40408328
0.66851150 0.05857274 -0.56169082
0.45240584 -0.16319880 0.99816059
0.11987563 -0.17964697 0.96712281
0.42590778 -0.43137988 -0.08481221
0.53750951 -0.11845354 1.00359119
0.14980340 -0.23980221 -0.52678569
0.53834139 -0.41770776 0.65601337
0.34612532 -0.03438357 0.90497669
0.39999976 0.03599294 -0.60636641
0.47161264 -0.30835976 0.92755540
0.51253950 -0.40750012 0.71111706
-0.06662768 -0.27427829 0.96281388
0.36001430 -0.31283608 1.02693715
0.26850705 -0.17184721 1.03161756
0.15258126 -0.16288847 0.99133764
0.24268645 -0.37381647 0.86540880
0.22735911 -0.13276110 1.02708013
0.34788882 -0.45748780 -0.08825677
-0.23978600 -0.15275205 -0.30042529
0.31430025 -0.49569206 0.44157850
-0.27336342 -0.15171087 0.61053891
-0.18591628 0.10067664 0.16186617
0.34787493 0.08325257 -0.54683360
0.36992462 0.10607532 -0.50697498
0.24191131 -0.24015316 1.01808019
0.47838336 -0.01404124 0.92760210
0.62618086 0.01214845 0.87162534
0.41793861 0.07901578 0.77363306
0.54634576 0.27995206 0.02704787
0.56168219 -0.41673762 0.37859328
0.15552459 -0.16810211 0.99877169
0.85994015 -0.10452922 0.54164571
0.67664744 0.23524154 0.16867888
0.13718195 -0.29462896 0.93486656
0.02571834 -0.03776993 -0.51238512
0.15359091 -0.16221591 1.00242684
0.43303860 -0.09861767 -0.65182541
0.42915404 -0.18370285 0.96090163
0.54754441 -0.15621406 -0.57524433
0.37102721 0.04885210 -0.56206825
0.32126709 -0.02342132 -0.65444299
0.13771963 -0.25869907 -0.49708540
0.17246086 0.16710852 -0.49832104
0.28515554 -0.43688264 -0.21702564
-0.07566624 -0.21625764 -0.54934011
-0.02372173 -0.27569888 0.99488190
0.60232102 -0.38505370 0.08490627
0.16274265 -0.52640117 0.09188751
0.60337892 0.00866038 -0.60691588
0.82516192 0.04155858 0.31618746
-0.17999182 -0.41086466 0.42610794
-0.29787379 -0.13240930 -0.21354370
0.18841891 0.10555719 0.77810271
0.00729335 -0.14191479 0.88724162
0.36118203 -0.48715554 0.21038944
0.57298221 -0.41890307 0.37799305
-0.16624109 -0.33429629 0.81689205
-0.21162225 0.02828753 0.51648751
0.15032934 0.17814780 0.54285667
-0.28006641 -0.27271554 0.59166372
-0.00167599 0.13756457 0.49559777
-0.17497813 -0.25949519 -0.33874406
0.07008057 -0.45376731 0.63658896
0.41272842 -0.00611104 -0.68048606
0.48858709 -0.02977271 -0.62017321
0.39708181 0.28378413 0.27568945
0.71616207 -0.29902839 0.62279575
-0.08168923 -0.46470925 0.03121763
0.42646214 0.09032060 -0.49535352
0.77610066 -0.24227762 -0.19549829
-0.04091643 -0.06539292 -0.49622098
-0.38495013 -0.13054294 0.05478670
0.86502660 -0.16670085 -0.15544428
0.72693111 0.01128787 0.76411484
0.36584215 0.20549213 -0.33720191
-0.09610502 -0.34903760 0.87624960
0.44435743 0.22096653 -0.26036462
0.21542726 -0.20677393 -0.54132573
0.28094732 -0.04004745 0.92581653
0.75092689 0.16890288 -0.06133980
0.28085652 -0.07657108 0.95629550
-0.12422915 0.00328852 -0.36873078
0.29875290 -0.09675793 0.96304403
0.40395876 0.01724461 -0.62568833
0.43733392 -0.29225700 0.97277795
0.27922716 0.00060833 -0.67925379
0.04006157 0.08416572 -0.51864393
0.82672894 0.08445925 -0.00810786
0.02415590 0.10009164 -0.50214123
0.24584481 0.17048874 -0.49695143
0.24132056 -0.09623853 -0.67382859
0.34200703 0.09392408 0.76691648
0.80313268 -0.27875645 -0.05668904
0.40391327 -0.20533325 0.94677949
0.74165690 0.15805434 -0.07146349
0.49943851 -0.02912193 0.96275426
0.72461035 0.19332496 0.05373349
-0.13049307 -0.40738039 -0.05313186
0.69857230 0.18537895 0.31948798
0.68736015 -0.35619843 0.12064221
0.35164440 -0.31384480 -0.46322700
0.51398808 -0.24877498 -0.56388424
-0.32302957 -0.24877026 0.15182209
0.91302921 -0.03108194 -0.04543446
0.46026228 -0.00256528 -0.67460152
0.05180716 -0.12960639 0.92201226
0.10901909 -0.07274660 1.03399883
0.40557792 -0.20296547 0.95658760
-0.17664671 -0.29490513 -0.25888195
0.51511132 -0.43472410 0.36573176
0.46596517 0.15693425 -0.39425818
0.85704023 -0.06478157 -0.22066720
-0.29150574 -0.21990430 0.56890556
0.11964698 -0.06184438 -0.62976436
0.72852062 -0.06594644 -0.39608516
-0.12495140 -0.01488357 0.73636434
-0.23711853 -0.00226742 0.53225339
-0.19327737 -0.38056011 0.60245300
0.44247343 -0.02730570 0.95297774
0.07833491 -0.03843516 0.99986855
0.35774880 0.01438531 -0.59811634
0.73415707 0.13996684 0.38777426
0.69256330 -0.36010397 0.48162442
-0.10331473 -0.27416117 -0.43182281
-0.14075345 0.12549044 0.04162642
0.21276515 -0.02569513 -0.62745590
-0.04436779 -0.01663068 -0.43211845
-0.12444880 -0.46453714 0.19096074
0.83578267 -0.23871831 0.53565007
0.34458589 -0.05149209 -0.65649418
-0.10342978 0.05841951 -0.35012672
0.27003654 -0.00344756 -0.68822503
0.03704878 -0.16970308 0.90276764
0.04348690 -0.16618648 -0.65151530
-0.29347715 -0.07073359 -0.20723757
0.13883398 -0.30948285 0.90887230
-0.24507736 -0.27968887 -0.08024959
0.03178683 0.18771881 -0.28750265
0.22170520 -0.18366150 1.03209566
-0.22426596 0.07328793 0.29387732
0.59107405 0.09709537 -0.55912075
0.46961092 0.12074514 0.71220190
0.21230953 -0.52472414 0.24972714
-0.26189682 0.05686756 0.32168214
0.33540479 0.14160375 0.69472507
0.16608899 -0.10081898 -0.69581542
0.35626111 -0.30591543 -0.49816815
0.20756825 -0.06159573 1.00552844
0.33058873 -0.04558288 -0.66735962
0.51562035 -0.09603538 -0.53862487
-0.14815378 -0.39282874 0.68292964
0.18641743 -0.23247416 -0.52603588
0.44207473 -0.12877447 1.04391229
0.32625258 -0.04728359 -0.66577902
-0.15829852 0.06775231 -0.25170526
0.83601001 -0.17699560 -0.19040041
0.07711919 -0.27035148 1.01854794
0.52895815 -0.01942761 -0.61312359
0.29492872 -0.17911487 1.04426895
0.10598470 -0.40700852 0.72970616
-0.02589445 -0.29114660 0.98187101
0.73690824 0.03341176 -0.46723615
0.25939694 -0.38536089 0.83964563
0.44368268 -0.12144563 -0.66134050
-0.26276503 -0.14813883 -0.25452993
0.16222593 -0.19424696 0.99233402
0.24982089 -0.18050116 1.02637636
0.26219634 -0.24963865 1.03308263
-0.02294819 0.16697880 -0.08095899
0.60219371 -0.17557146 -0.49806639
-0.08316349 -0.02784656 0.79201405
0.04183341 -0.16461323 -0.65802325
0.21676774 -0.12623386 1.03605836
0.47817523 0.13821937 -0.43533701
0.35762977 -0.12577861 -0.67053109
-0.11034092 -0.11594180 -0.47830699
-0.20332558 -0.20472211 -0.36258181
0.60334484 -0.06067856 -0.49938654
0.31010885 -0.19118500 0.99549136
0.50608027 -0.32927167 0.89309421
0.31086726 -0.05127427 0.91868461
-0.19174514 -0.37889582 0.12049652
0.67076368 -0.21613013 -0.39822543
-0.15579459 0.10279482 -0.16827972
0.54584983 0.08585023 -0.58552223
0.38268342 -0.35478093 0.97852223
-0.15865285 -0.09147027 -0.41205044
-0.11306163 -0.31952712 0.89888654
0.72993006 -0.14031610 0.75204697
-0.07570563 -0.31243833 -0.38046165
0.28224786 -0.04210096 -0.65296139
-0.14358143 0.11072046 -0.10908066
0.14878100 -0.17004789 0.98096742
0.70405929 0.19398033 -0.07145979
0.26846634 -0.23978868 1.03494958
0.45900615 -0.14448151 -0.65786420
0.15348933 0.21508245 -0.33127510
0.09942726 -0.00455687 0.96769409
0.37797997 -0.25644059 0.99256551
0.60189343 -0.10110285 0.94630110
0.27281279 -0.05642776 -0.66268066
-0.39186136 -0.12325865 0.26587365
0.19604614 -0.29274870 -0.45828871
0.57100222 0.23929132 -0.14037979
0.00742226 -0.47999447 -0.06660914
0.02070054 -0.09215345 0.92907120
0.25464024 -0.10570768 -0.67159160
0.76221686 -0.01733243 0.72354726
-0.35470038 -0.08627998 -0.07032304
-0.21357715 -0.18686548 -0.36381833
0.38900271 0.25499927 -0.17060287
0.38434189 0.01374192 -0.63173436
0.33285730 -0.02265999 0.89899460
-0.09774416 0.13560887 0.15821653
0.73011247 0.11528595 0.46555438
0.94199242 -0.18395337 0.27261327
0.04388704 -0.13138346 0.91656655
0.35423595 -0.32730596 1.00192672
0.73579751 -0.15125272 0.73815566
0.69964811 0.04448641 0.71004756
-0.05793755 -0.49754530 0.32531822
0.73947663 -0.30601795 -0.09855714
-0.05285340 -0.39466668 -0.21838927
-0.34992546 -0.04991231 0.39928466
-0.34506299 -0.05345010 0.41001519
0.65866813 -0.07434948 0.89761432
-0.27711101 -0.24533448 -0.07952971
0.80191005 -0.11240177 0.66450853
0.30640712 -0.19853112 1.00682356
0.83335711 0.02266071 0.42770089
0.13652553 -0.52971163 0.21326436
0.07154977 0.05614682 0.87639247
0.85154367 -0.25994231 -0.00127021
0.85028063 0.05962435 0.06447913
0.77589224 -0.13823573 -0.29016625
0.62760765 -0.32568910 -0.19932029
0.69210808 0.18934381 -0.17339037
0.74704190 0.02150157 0.68539897
0.55267560 -0.24138840 -0.52360317
0.62157485 0.25892354 0.09113082
-0.30560448 -0.28526998 0.30580743
0.84373134 -0.21093417 -0.14382779
-0.24101090 -0.35006998 0.49558345
-0.28635380 0.05471470 0.13249388
-0.13006100 -0.03210673 -0.38019992
0.53925492 0.03405507 -0.65169996
0.46586198 -0.05440982 -0.60390365
0.01481793 0.17597369 0.18830254
0.49005441 0.29268078 0.16358211
0.19647527 0.15735023 -0.52991420
0.78103844 -0.16261495 0.66541689
0.57922903 0.08394658 -0.57302435
0.74279409 -0.34318210 0.20823066
0.20767669 -0.31279884 0.90721312
0.32147316 -0.26689320 1.04430373
0.60942522 -0.04820690 -0.51157567
0.31395534 -0.24163878 1.03668543
0.72029115 -0.20347076 0.71625088
0.61973703 0.12438001 0.64498541
0.36320704 -0.38168784 0.94234015
-0.25805751 -0.31718850 0.61625068
-0.14977497 -0.19911879 -0.47086181
0.26080372 -0.19843967 1.02264185
0.62560149 -0.05578561 -0.48168399
0.26102780 -0.21602858 -0.54452769
-0.33759530 -0.18408375 0.48107982
-0.03302325 -0.17337468 0.86238037
-0.20531110 0.08141638 -0.09708727
0.06975223 -0.09731707 0.98463371
-0.22332541 0.00966158 0.52345830
0.39307501 -0.00649020 -0.66863553
0.33259722 -0.04295193 -0.66658097
0.43233181 -0.30733286 -0.50518279
-0.25066556 -0.11633205 0.62067186
0.79754163 -0.15152163 -0.27336607
-0.06589918 -0.32009995 -0.37376498
0.83476387 -0.00450432 0.50032900
0.57621569 0.23585706 -0.14685835
0.23966609 -0.17630381 1.02415088
0.62471667 -0.16603535 0.84535993
0.36791407 0.28710231 0.14192335
-0.08331909 -0.24203867 0.92700339
0.52722742 -0.21569989 0.86088476
0.62137448 -0.05475459 -0.50655069
0.32551471 -0.03155808 -0.66233746
0.84088438 0.06640891 0.08145054
0.47291115 0.10222776 -0.49598867
0.32970936 -0.03593931 -0.66439199
0.31335353 -0.02824391 0.90413999
-0.24818913 -0.33778648 0.26001995
0.82230409 -0.26847641 0.49069573
0.07493898 -0.23962423 1.02062730
0.02278153 -0.29446264 -0.45977934
0.42593696 0.25993005 0.41154520
0.50232766 -0.43414526 0.23605456
0.04092122 -0.33274508 0.92212521
0.49624335 -0.31494509 0.90675643
0.49322655 -0.06412602 -0.57844488
0.17930462 -0.15852198 1.04877862
0.61057591 0.00857656 0.88054782
0.28634998 0.13398180 0.72066125
-0.38310054 -0.05232106 0.17951824
0.92991970 -0.15011414 -0.03494525
-0.22410535 0.08120539 0.19185082
0.27776892 -0.28572252 1.01535914
-0.20212237 -0.30537932 0.78921980
0.40507320 0.10086249 -0.48695291
0.00937232 0.17749427 -0.15833522
0.00420179 -0.39976626 -0.24476892
0.08057126 -0.40165435 -0.29300825
-0.08039238 -0.01818742 -0.41638348
0.23811361 -0.12726485 1.00429280
0.20115752 -0.51283592 0.50454721
0.57428361 0.27837315 0.11811289
0.79486308 -0.22460974 0.62196478
0.40484930 0.10622355 -0.48607690
0.73031572 0.16585121 0.26914768
-0.11299272 -0.11865240 -0.48362493
0.02669024 -0.11145979 -0.63189750
-0.34890083 -0.20606090 0.13399537
0.15570076 -0.03456561 -0.58585180
0.92186578 -0.03741965 -0.01312050
0.03275947 -0.07369427 -0.57003749
-0.30875857 -0.17242513 0.56218747
-0.35276473 0.00383118 0.16096613
0.81251416 0.09456371 0.16068028
0.05997519 -0.28870467 1.00319874
0.30819539 0.23704341 0.48392927
0.22663643 -0.13026042 -0.63188746
0.82491591 0.08463945 -0.10266580
0.57683803 -0.16214330 0.89092648
-0.30354876 -0.15631363 0.56322110
0.53822435 -0.27218570 0.85230118
0.18950218 -0.19407469 1.01246451
0.46318009 0.00261665 -0.66845165
0.57114801 -0.41230738 0.29999203
-0.03310751 -0.44887458 0.62016985
0.44465324 -0.42000325 -0.08293012
0.22237880 -0.19036812 1.02496071
-0.03735685 -0.41801403 0.67714616
0.65829924 -0.28014138 -0.32852192
-0.06723775 -0.39064147 -0.21583007
0.29415352 -0.03043073 -0.66434361
0.01477370 -0.43847034 -0.18187344
-0.00415900 -0.52051382 0.19179115
0.72678541 -0.08949588 -0.38455198
0.17483740 0.01409994 -0.62725428
-0.13743410 -0.00277345 -0.35691888
0.35954090 -0.08366013 -0.69082206
-0.10125374 -0.11614122 -0.50683787
0.31684508 -0.20604554 -0.58918988
0.03994737 -0.17828017 0.91334834
0.37853016 0.20096687 -0.33915262
0.29946235 -0.50830619 0.30940036
0.69733721 0.22303176 0.07774573
0.44384771 0.25515377 -0.18023517
0.28367746 -0.07742210 -0.66587715
0.32686074 -0.06639672 -0.66939003
0.68261490 -0.29747901 0.70418719
0.19839636 0.20541568 -0.38654938
0.64294863 0.15349979 -0.39219183
0.82838942 -0.18657384 0.60872389
0.35433537 -0.05188767 0.94494709
0.26229523 -0.14652233 0.99994096
0.16854697 0.17377384 -0.49362985
-0.32067759 -0.25625989 0.16393661
0.34352574 -0.05811153 -0.66157186
0.36033337 -0.49775320 0.24477061
0.31565990 -0.07402930 -0.65881315
0.52157246 0.22771242 0.46445143
0.03742112 0.09574985 -0.51723561
0.07286034 -0.18810209 0.96483668
0.64601823 0.24664354 0.07420704
0.22090485 0.16379459 -0.52035444
0.25471786 0.03392794 -0.67845103
0.52867815 0.10985264 -0.51381791
0.17284070 -0.21250605 1.02833684
0.13028341 -0.51211134 0.47785306
0.31922422 -0.15194116 1.05413135
0.03310402 -0.20046978 0.94276621
0.45116012 -0.38470171 -0.28114872
0.32946966 -0.36378672 -0.36753976
0.52855625 -0.28255990 -0.51649673
0.07331544 -0.03980701 -0.54484841
0.55367446 -0.30574474 -0.44018519
0.30830765 0.15536740 -0.47772269
0.17389312 -0.15657695 1.03129363
0.40306373 0.06354510 0.79554247
-0.31936664 -0.08680094 -0.17447274
0.09871690 0.01476527 -0.56388218
0.23346907 -0.18372647 1.02690861
0.33659487 -0.48471184 0.11666701
0.05405128 0.18426127 -0.26283322
0.21996374 -0.15781771 1.03513030
0.64913877 0.17136071 0.48014617
0.13307772 -0.04106433 -0.57328551
0.08256109 0.20940276 -0.23799794
-0.07750208 -0.01863570 0.79796966
0.31746731 0.11109875 -0.55049781
0.34962416 -0.48355881 0.54340644
0.55786182 -0.09488979 -0.50996219
-0.25889067 -0.22105470 0.64491434
-0.06605760 -0.44083012 -0.10823719
0.70718446 -0.34561310 0.44864006
0.74096344 -0.11333638 0.75896486
0.15938974 -0.15854017 -0.64158467
0.52675327 -0.27326000 0.87112000
0.38331341 -0.22499054 0.97457546
0.44158135 -0.45381264 0.56078068
-0.16543884 -0.05837232 -0.36269467
0.64712129 0.09888831 -0.53599162
0.32760668 -0.04417213 -0.66473062
-0.25454111 -0.17998857 0.65140403
-0.35512973 -0.20620315 0.39296882
0.01746295 -0.12603465 0.89824442
-0.22075938 -0.31359755 -0.05192481
0.31412190 -0.04654164 -0.67317312
0.61273845 -0.31642248 -0.33400083
0.73097435 0.17324816 -0.01430276
0.31187436 0.22834459 0.49943358
0.38911770 -0.13573638 -0.68582544
0.66505645 -0.36762751 0.18453918
0.50241872 -0.15465830 0.95666615
0.70250996 -0.34243360 0.53523141
0.34749681 -0.22829894 0.98782894
0.04983055 0.01794739 0.91986453
0.20772789 -0.17974882 1.01234191
0.15828731 0.21969767 0.32157605
-0.12757954 -0.35099985 -0.20593523
0.81357499 -0.22131946 0.60465948
-0.10001800 0.10797740 0.38491969
0.24105455 -0.06998810 -0.68578637
0.14375650 0.17812776 -0.44470494
0.57397396 0.27927628 0.10191847
0.38968781 0.12286777 0.71974527
0.52543028 0.02225139 -0.66117755
0.64684693 -0.19217176 0.79164799
-0.21256991 -0.02752287 0.61041818
0.42588998 -0.12819387 -0.67843268
0.04276396 -0.51415253 0.05069729
0.43716967 0.17590225 -0.34435222
0.54545908 0.27711134 -0.02489936
0.55852190 -0.36352724 -0.21756703
0.17222865 0.13776337 0.70144614
0.61709222 -0.25788292 0.77711362
0.57230855 0.13107244 0.66775985
0.14665482 -0.34161144 0.85215133
0.44633450 -0.17040253 -0.66981633
0.26085919 0.12937587 0.73763709
0.14557272 0.22920228 0.04939604
0.68114832 -0.07032038 -0.43346697
0.24910088 0.18298484 -0.47397411
-0.35905708 -0.04149724 0.33221545
-0.37538249 -0.03476797 0.21895805
0.32712049 -0.04397634 -0.66717725
0.43047897 -0.38037112 -0.28384251
0.39131270 -0.26623277 -0.56327217
0.15978446 0.00466258 -0.61442963
0.56046010 -0.24915809 -0.52947820
0.29899014 0.02269980 0.86947560
0.91569909 -0.02253462 0.05883940
0.04772373 -0.27592659 1.01051598
0.86734159 -0.03333730 -0.18322334
0.41363934 -0.02494386 -0.68638526
0.40890000 0.29022872 0.18315364
-0.32413416 -0.25240176 0.31509242
0.26934060 -0.23189208 1.03769590
0.39024396 -0.01426683 -0.67177513
0.07481221 -0.13980920 0.95589008
0.24455529 -0.24280422 1.01341810
-0.08693606 -0.02355671 0.78489589
0.27739234 -0.11850543 0.97098326
0.45442271 0.27447024 0.34885939
-0.31163480 0.03198650 0.12306918
-0.27306773 -0.17609784 0.61509023
0.30064668 -0.23481530 1.02677827
0.11932378 -0.30023511 0.94048520
0.07984872 -0.51006122 0.44672748
0.35385901 -0.17818286 1.00288096
-0.15430451 0.02447603 -0.32063738
-0.07415818 -0.09376875 0.80538406
0.72648492 -0.24841143 0.68240278
0.23839511 0.21596217 0.48431781
0.23350040 -0.51818589 0.37326375
0.23711833 -0.19125776 1.02606808
0.42199844 -0.09212433 1.01938477
0.06390347 -0.05472340 -0.55614342
0.24032378 -0.19287715 1.02194314
0.51111412 0.28995473 0.20128143
-0.39447054 -0.11576594 0.17421975
0.08860503 0.14650020 0.61990541
0.48372136 -0.44402785 0.32317183
0.64805246 -0.15187760 -0.43113490
0.45148368 -0.21592387 -0.62924957
0.16308254 0.10211178 0.78788036
0.13390231 0.14561218 0.65897704
0.19441056 0.08336292 0.81596223
0.67092975 0.21735855 0.28721680
0.81697578 -0.12882409 -0.25372961
-0.09914789 -0.07670427 0.78084752
0.30718379 0.17636523 0.63482833
0.41012690 -0.11283017 -0.66988901
0.15857297 -0.16478173 0.99157098
0.86063218 0.01767970 0.32065861
0.53808735 0.19721265 -0.29473574
0.07584050 -0.32208427 0.89295030
0.26991406 -0.24265192 1.03660995
0.28354690 -0.02722245 0.90750988
0.46560567 -0.07839351 -0.60430923
0.24817468 -0.19876816 1.02788881
0.48748082 -0.33936021 0.90957894
0.24239504 -0.15493271 1.01330175
0.45966425 -0.12717608 1.04582002
0.72923430 -0.30735706 -0.13194081
0.05268828 0.06917136 0.84428855
-0.14238947 -0.41976065 -0.04674460
0.37369362 -0.44576837 -0.08288242
0.50491829 0.09577275 -0.54728440
0.23832305 -0.19927211 1.02951138
0.56616216 -0.08384782 -0.50950705
0.25120806 -0.44803550 -0.17026085
-0.03439722 -0.15109490 0.84756145
0.63223915 -0.20016098 -0.45365109
0.03296191 -0.12546298 -0.63125407
0.26857196 -0.43727127 0.73798309
0.40613799 -0.12987506 -0.68014449
0.31552156 -0.50030384 0.26805510
0.11067206 0.21776339 -0.05668330
0.33732952 -0.03683007 -0.67276224
0.25859420 0.19283544 0.56181289
-0.04453902 -0.11344422 -0.55506806
-0.27969465 -0.23359334 0.60492435
-0.02356457 -0.22256205 -0.58434502
-0.23024236 0.07049530 -0.09718541
0.37689504 -0.41426749 0.86171944
0.84588008 -0.27175558 0.44153185
0.22152748 0.15479267 0.66846749
0.23251591 -0.28403011 0.97512269
0.21666259 -0.23230897 1.00163418
-0.29257654 -0.26688327 0.52916594
0.25094598 -0.17351121 1.01312706
0.36970071 -0.36724697 0.95342163
0.77467535 -0.09100821 -0.33327780
0.24901166 -0.37726851 -0.34939104
0.71808688 -0.15190339 -0.36156608
0.79445037 -0.12529935 0.66473578
0.17137420 0.04301877 -0.64662305
-0.07711183 -0.41968984 -0.11689985
0.01056409 -0.18713503 0.90733281
0.51366275 -0.16848398 0.93289176
0.72776679 0.15227173 -0.26268360
-0.02947112 -0.11668757 0.84054749
0.77186438 -0.32816371 0.16765428
0.32532366 -0.03141030 -0.66485011
0.23654073 -0.20053227 1.02673957
0.20802681 -0.18163481 1.02351794
0.33124083 -0.04185362 -0.66214912
0.78302038 -0.29035602 -0.03566508
0.13855756 -0.05570847 1.02541597
0.36506501 -0.17144165 -0.66203940
0.17984058 0.06679615 -0.64912148
-0.16727945 -0.38930184 0.04331856
-0.00374887 -0.42555232 -0.18535098
0.52540975 -0.40288980 0.74902003
0.33212917 -0.17016281 1.03577486
0.36752657 0.27996239 -0.04056469
0.16844871 -0.46422100 0.65359275
-0.19364980 -0.27092730 -0.27598629
0.00477243 -0.08420533 -0.57112793
0.27164742 -0.19041376 1.04227734
-0.08010719 0.14517000 -0.06871543
0.56249926 -0.33440673 0.82166005
0.57643056 0.01320257 -0.62463621
-0.12745261 -0.05431158 0.74402340
0.89871107 -0.14854921 -0.09298254
0.83523930 0.06192606 0.09414429
0.29947835 -0.50270401 0.41905082
0.23633642 0.23670372 -0.23968953
0.66132270 -0.24390107 -0.37220284
0.31217908 -0.46903755 -0.03397565
0.66102638 -0.19369646 -0.41603321
0.32447707 -0.02389721 -0.66077339
-0.30793796 -0.27859201 0.33962599
0.43833347 -0.44827854 0.12096065
0.23985039 -0.17772977 1.02212958
0.32984009 0.15647291 -0.45714170
0.87894947 0.01931072 0.16411268
0.89619869 -0.16256733 0.45831471
0.21111405 -0.28878938 0.93123549
0.18286687 -0.15768543 -0.61563022
0.28684086 -0.50815533 0.42306831
-0.22892078 -0.20389821 -0.32340150
-0.02956685 -0.19227625 0.88200089
0.24702047 -0.05444721 -0.64151690
0.05227609 -0.35168825 0.84263052
0.33283182 0.03606346 0.84361304
0.53492285 -0.12758024 -0.56629249
0.40915545 -0.13866820 -0.69231257
-0.02696744 -0.01333624 0.87120504
-0.22500734 -0.36084790 0.20046314
0.58339794 0.18098317 -0.34424835
0.54526373 -0.04698173 -0.55434151
0.79063883 -0.28711057 0.51174730
0.91515892 -0.23212319 0.15194462
0.03660242 0.15185504 -0.42345498
0.49779511 0.19242277 -0.32989432
0.37390724 0.15997352 -0.41410176
0.76155039 0.14584514 0.04737140
0.38690526 -0.08924884 1.00297680
0.50700869 0.02731934 -0.65661070
0.57739085 -0.03109153 -0.56127498
0.67287099 0.09284328 -0.52376132
0.35919672 -0.08822072 0.98850471
0.46541556 -0.36694117 0.89581584
-0.10090251 -0.26196553 -0.46335235
0.24925781 -0.21792638 1.02506261
0.29564527 -0.06606522 -0.66602638
0.74003299 -0.32063520 0.50520437
0.01352891 -0.33547439 -0.38184193
0.09889588 -0.09479420 -0.65777139
0.16081111 -0.51702004 0.42541679
-0.26483169 -0.11633794 0.60725252
-0.07786556 0.14671335 -0.08980742
-0.34865525 -0.09810481 -0.07036135
0.53833524 0.22355878 0.47733537
0.50417019 -0.41010765 -0.09247313
0.30313966 0.02577376 -0.64711342
0.61956031 0.24666930 0.32096361
0.22791567 0.03405895 0.88215638
0.61960626 -0.39846923 0.48444024
-0.05483802 0.12309443 0.45429542
0.16447671 -0.31991497 0.87982688
0.45175690 -0.31525726 0.94763305
0.75947347 0.12735800 -0.24199599
0.35093422 -0.47600041 0.55942742
0.29001016 0.00283956 -0.68203188
0.31429654 0.08692310 0.78482621
0.18308663 -0.29169139 0.91884117
0.68071774 -0.16152558 -0.39281930
0.24092619 0.08662110 -0.65478581
-0.20012399 -0.35820074 0.70081619
0.11707806 0.04367001 0.92058065
-0.10890169 -0.30555711 0.90835576
-0.13727510 -0.42920665 0.08208709
0.59594781 -0.09669730 1.03200693
0.31881245 -0.10332396 0.89327889
0.34022638 -0.12289463 0.98169418
0.31516127 -0.03428684 0.84774243
0.62520568 -0.06288629 1.04143194
0.28469828 -0.03090296 1.22029405
0.43740876 -0.12309976 1.04511868
0.29942211 -0.03721873 1.15968196
0.43243465 -0.15419590 0.82608733
0.43759218 -0.03443065 1.21418014
0.26484164 -0.09118514 1.18419987
0.27251658 -0.08764027 1.05388282
0.39156842 -0.13942688 0.94621636
0.38112062 -0.06667157 0.91542916
0.36858820 -0.07857180 1.08423956
0.38720050 -0.08921720 1.03292319
0.25206824 -0.06951907 1.00589633
0.42247148 -0.00307687 0.67162382
0.24094782 -0.08204548 1.01239261
0.41280498 -0.09844853 1.12926663
0.48076895 -0.04107481 0.97308759
0.22684844 -0.08187993 1.22895354
0.45729795 -0.10512221 1.13673314
0.48575660 0.01863523 0.86927356
0.37927408 -0.04530185 1.03169325
0.31521971 -0.06740424 1.11828616
0.40838896 -0.05519820 0.96437865
0.52597324 -0.08281419 0.91550658
0.41831193 -0.01010480 0.75184381
0.30754685 -0.16452796 1.00147718
0.30432184 -0.10447930 1.12329762
0.35886248 -0.05781715 0.95682377
0.46532260 -0.03621050 0.88807509
0.38389333 -0.03860642 1.08578067
0.30938077 -0.04626610 0.81732318
0.50501174 -0.01799057 1.07787877
0.41470838 -0.09113367 1.13303149
0.36948304 -0.07102830 1.17251395
0.37016878 -0.08159227 0.80565768
0.32313005 -0.15829701 1.13199453
0.55551427 0.03078166 0.73843765
0.45682830 -0.00411828 0.94436805
0.42439219 -0.14720317 1.06447780
0.33425440 -0.05010781 0.73590844
0.45365000 -0.01578404 0.87602538
0.33015369 -0.16298622 0.95458489
0.36629916 -0.14143046 1.09386685
0.37187211 -0.10889803 0.91214384
0.48270741 -0.03742129 0.99453208
0.45859049 -0.10527406 1.02831494
0.41166923 -0.09296948 1.09407268
0.33708830 -0.06473525 1.11282798
0.20163279 0.00167735 0.45518300
0.35671998 -0.02709324 0.95989630
0.28949733 -0.14257067 1.18920332
0.24920735 -0.05125539 0.99825815
0.32028666 -0.09465139 0.83007872
0.48772877 -0.00616907 0.71112886
0.36670344 -0.12430767 1.23875234
0.29039226 -0.01533019 0.99992676
0.32359441 -0.09761231 0.86268764
0.31219645 -0.06018753 0.79652350
0.24850740 -0.07799744 0.68806661
0.35476263 -0.09318897 0.85260041
0.56795085 -0.04925720 1.07029141
0.26567468 -0.11924368 1.04271669
0.33382814 -0.02516838 0.79620606
0.38216161 -0.09560970 1.04599622
0.35545199 -0.08676989 0.96958555
0.34812782 -0.05635442 1.05114742
0.39260201 -0.10450488 1.15411575
0.39443468 -0.09083018 1.02480512
0.53587223 -0.11877983 1.15878509
0.24137634 -0.09906565 1.28185122
0.45279625 -0.05128307 0.92028532
0.41061824 -0.06864399 0.87387679
0.39342896 -0.05921850 0.87640370
0.33977901 -0.13690425 1.07944278
0.44377949 -0.07298187 1.19472418
0.41354602 -0.06495495 1.07300649
0.38486772 -0.12700564 1.40443063
0.37311317 -0.11216543 1.08724977
0.42165119 -0.13813085 1.21020086
0.38959119 -0.13415493 1.22746628
0.45487071 -0.14720686 1.33326239
0.43856684 -0.08553872 1.29894448
0.42147741 -0.06244615 0.89643791
0.44983453 -0.04425144 1.02182728
0.33688574 -0.06957396 0.99850350
0.30695636 -0.15197628 1.09847952
0.20133070 -0.07475923 0.91827158
0.50471050 -0.09194169 1.14416335
0.36269002 -0.08483627 1.14689490
0.36432948 -0.01609618 0.84011119
0.42134164 -0.03877546 1.13700052
0.56929366 -0.06164635 0.77024579
0.31982004 -0.05872681 1.10744509
0.41304329 -0.12196135 1.14813312
0.27465448 -0.07907686 1.52276972
0.43750310 -0.04002977 0.92624084
0.27670083 -0.09049290 0.80484346
0.28236408 -0.02224425 1.06215811
0.44340191 -0.07281884 0.98831619
0.48514854 -0.07236308 1.11055853
0.40165595 -0.06455392 0.75103921
0.24844390 -0.10317005 1.01736958
0.30445985 -0.08741892 1.02026553
0.23846714 -0.13619132 1.07232208
0.43202023 -0.12004147 1.03739419
0.48407975 -0.03203762 1.00266805
0.36196254 -0.10722258 1.09566635
0.41821762 -0.04502378 1.03520716
0.46039724 -0.07292657 1.15756180
0.49382115 -0.06046906 0.69615132
0.53723852 -0.01691795 0.71836158
0.34365631 -0.03941478 0.96306451
0.36113388 -0.00262654 0.82979068
0.33659197 -0.07586535 1.07852533
0.44061519 -0.03274479 1.05632647
0.44685021 -0.08115130 1.02358505
0.04012817 -0.11442242 1.12748082
0.09965569 -0.09255324 0.85352625
0.04709161 -0.11841013 1.03426264
0.22838319 -0.11512358 1.07970586
0.10735872 -0.13341938 1.41659910
0.02653861 -0.09406112 0.84848772
0.01213384 -0.11933609 1.14585539
0.06633825 -0.06534050 0.98752922
0.01501220 -0.01244902 1.06620348
-0.00034317 -0.13201716 0.82390276
0.11852636 -0.12211436 1.01968032
0.05122117 -0.07241922 0.83734016
-0.04145897 -0.11951918 1.09645803
0.07471310 -0.15431350 1.11002060
0.00424169 -0.12472360 0.82111568
0.14957298 -0.08871480 1.10753490
0.14937617 0.03385164 0.70489772
0.00026959 -0.13575824 0.83509904
-0.02452073 -0.11310139 0.77097302
0.07209417 -0.11421804 1.08047893
0.08608133 -0.07809029 0.92916631
0.23798929 -0.04908137 0.67379214
-0.02080014 -0.19197129 0.98087601
0.02208936 -0.16431623 1.35206466
0.09819554 -0.06095045 0.82893573
-0.03613681 -0.11917208 1.02276801
-0.09948686 -0.13920346 0.98559344
0.03959101 -0.13835797 0.90307886
0.02925935 -0.11774872 1.09439519
0.13701928 -0.10324963 0.91751470
0.06583250 -0.07851422 0.92616947
0.08650577 -0.08131346 1.22032395
0.19774616 -0.12979613 0.99221481
0.05671423 -0.10255311 0.87846987
-0.06006925 -0.11280718 0.84124635
0.07065199 -0.12013880 0.79923863
0.05406791 -0.12098881 1.09411873
0.20955305 -0.08993824 1.09253743
-0.05100870 -0.19720454 1.26959899
-0.02099099 -0.16332010 0.97037956
0.04709834 -0.14553706 0.93575085
0.16377901 -0.11072707 0.74592376
0.12689408 -0.07124726 0.88805522
-0.07137947 -0.15762318 0.97076932
0.14898163 -0.14416024 0.98172193
0.10480323 -0.21845475 1.17248702
-0.05048707 -0.12242631 1.03353533
0.15354631 -0.04069696 0.57248622
-0.00489021 -0.11282220 0.95169575
0.07350408 -0.09507281 1.11218291
0.04996368 -0.17819010 0.90154761
0.08856633 -0.16295113 1.10392176
0.15216306 -0.04959376 0.45844067
-0.05609823 -0.04385683 0.89258977
-0.12257711 -0.08621727 0.99392904
0.13307162 -0.09843822 1.07759324
0.05361537 -0.11395653 1.40704004
0.13010035 -0.17709660 1.07594039
0.12362565 -0.04926553 0.93559892
0.10723865 -0.10741462 1.46191006
-0.00825115 -0.13229194 0.93514699
0.03890041 -0.10719367 0.49345700
0.02900462 -0.09334247 0.90543487
0.18345911 -0.11796365 1.23762516
0.05828405 -0.09186886 1.04611355
0.15766793 -0.10501644 1.08769530
0.06751392 -0.12706609 1.06879095
0.21534277 -0.10602593 1.08105487
0.14641449 -0.05395333 1.00792010
-0.12125172 -0.07700288 0.57895770
0.14957351 -0.11192122 1.17861384
-0.01660503 -0.18655078 1.03515310
0.05234665 -0.13760055 1.00747011
0.25092178 -0.07165911 1.19801271
0.09483781 -0.03625743 0.97002332
-0.12409947 -0.14581110 1.12710380
-0.02098461 -0.12144331 0.87042950
0.15718736 -0.07953964 1.12419241
0.09821328 -0.11245634 1.03587818
-0.02618254 -0.21126858 1.00848269
0.05414239 -0.08158225 1.27800566
0.18086895 -0.13832660 0.92907674
0.05826785 -0.03289448 1.27546010
0.14969939 -0.10752004 0.83598046
0.12342157 -0.14071599 0.95145955
0.03244830 -0.04150258 0.93039478
-0.14085241 -0.09690058 0.85943906
0.05146914 -0.11087569 0.94207145
0.11719459 -0.15684824 0.90373069
0.11923157 -0.10754572 0.70225050
0.09611034 -0.06395241 0.98758283
-0.08854488 -0.07595002 0.69152889
0.09087152 -0.12401454 0.78282456
0.02116422 -0.11606195 0.87673137
0.09030578 -0.14170088 1.16471368
0.08296149 -0.12504105 0.82956823
-0.07946131 -0.10906962 0.93310016
-0.13001108 -0.14530753 0.81394329
0.19556766 -0.14221115 0.73395317
0.13643641 -0.04587534 0.87233017
0.01331590 -0.05897340 0.56936312
-0.11382788 -0.16793986 1.26057979
0.00422810 -0.12568495 1.19787571
0.22142580 -0.10996390 1.00130066
0.19033574 -0.16872829 1.18559871
-0.02721687 -0.12058685 0.94142107
-0.02663075 -0.16292511 1.03496161
0.13095028 -0.10490500 1.01547434
0.09706775 -0.16171877 1.12708901
0.10226446 -0.00355075 0.93615150
0.00553913 -0.09848165 1.14854474
0.00257369 -0.13331269 1.08768424
-0.01548304 -0.14451288 1.00787359
0.14493466 -0.10248693 0.67073732
-0.08144186 -0.15607476 0.74388466
0.04800273 -0.15163329 0.86577362
-0.01705971 -0.15743187 1.23318382
0.10843036 -0.10017256 0.91718514
0.01271753 -0.10548945 1.10245383
-0.00545011 -0.09017673 0.62721638
