ply
format ascii 1.0
element vertex 1000
property float x
property float y
property float z
end_header
0.61980606 0.32779237 0.47419632
0.31445612 0.05060368 0.55463568
0.05968950 -0.09956515 0.32408844
0.41103236 0.20195115 0.60139667
-0.17610892 -0.52755521 0.27332109
0.26894588 0.18525820 0.39987452
0.61130244 0.29086927 0.39519463
-0.35953603 -0.28949749 0.18770255
0.57921917 0.16329854 0.44098810
-0.22650635 -0.12335879 0.42817405
0.50293330 0.22185650 0.49210338
0.76921098 0.29438805 0.49997055
-0.04403006 -0.39642648 0.31478495
-0.07874984 -0.19933608 0.46687658
0.23037044 -0.32149114 0.31452944
-0.53818317 -0.39668460 0.26376036
0.16583495 -0.08847616 0.36339433
0.02339250 -0.31977990 0.23915523
0.82839697 0.10899435 0.35177054
-0.20059585 -0.33964293 0.15360473
0.65600775 -0.05473890 0.40711162
-0.11450166 -0.26636174 0.19739955
0.38338378 0.29153271 0.41264112
0.85523607 0.19818368 0.46489820
0.55060517 -0.03985486 0.33805989
-0.43965318 -0.36671181 0.23574919
0.79037813 0.08671477 0.54213774
-0.31442371 -0.33079180 0.20904616
-0.11596706 -0.54230509 0.23702293
-0.17324172 -0.34423494 0.42020170
0.07716822 -0.38946071 0.12097178
-0.30114805 -0.45875094 0.30229072
0.02251566 -0.41539332 0.27210744
-0.08472120 -0.28498938 0.42639841
-0.08031006 -0.30105843 0.37761123
0.38772759 0.11686084 0.52178763
0.24780641 -0.07935193 0.43191550
0.41763677 0.14550508 0.40607748
0.71202040 0.10458378 0.30421324
0.06450694 -0.33981706 0.31103052
-0.20750895 -0.25691638 0.30063934
-0.20652635 -0.48235824 0.20837329
0.53434017 0.09083789 0.32439497
0.02559686 -0.36999236 0.08865563
0.94314093 0.17427530 0.31425841
0.64928657 0.28316150 0.46762797
0.27707292 0.23463220 0.35332317
-0.24108590 -0.20675844 0.42020650
0.91697553 0.17800336 0.58003961
-0.06130339 -0.19035070 0.44722337
-0.15746242 -0.49558828 0.23038761
0.77756931 -0.01724379 0.47357672
0.01249549 -0.24439537 0.24708886
0.85281017 0.08675978 0.43098079
-0.38370173 -0.25994950 0.40214120
-0.10047775 -0.38287771 0.20630113
-0.01210206 -0.06219027 0.39415857
0.04684989 -0.06634893 0.35629029
-0.19001817 -0.53687269 0.13111800
0.44080612 -0.15837933 0.33452047
-0.16545213 -0.15476803 0.18455503
0.27777559 -0.27889549 0.21750584
-0.44479819 -0.53679046 0.27697978
-0.39899239 -0.35239003 0.30036724
0.17503264 -0.04266064 0.32318397
0.40719052 0.14710222 0.53508031
-0.15258196 -0.19284126 0.20938112
0.32574679 -0.25837565 0.18422451
0.26702096 0.20277292 0.32937328
0.25199094 -0.05155242 0.50751111
0.51338958 -0.08637155 0.22725955
0.46479277 -0.14181211 0.45574331
0.64494583 0.44048225 0.48981518
0.44663895 0.19511181 0.30999133
-0.03418535 -0.39138464 0.19912908
0.71127418 0.43175544 0.47661419
0.31846887 -0.17241457 0.24481657
-0.42540842 -0.42307106 0.28963619
0.55411385 0.35713537 0.41152469
0.62478575 -0.02097253 0.32263948
0.33943604 -0.21736435 0.18592489
-0.00003258 -0.48275077 0.34333594
-0.08313569 -0.33222857 0.43152510
0.32200721 -0.12689985 0.46753647
-0.08858366 -0.45759003 0.22573874
0.01308003 0.00584271 0.25759122
0.30703231 0.02466844 0.54704977
-0.20671442 -0.54201292 0.32058691
0.49647970 -0.12071895 0.18941594
0.56587844 0.15773770 0.46715532
0.77877403 0.15124326 0.32320599
0.25036646 0.16138834 0.38646601
0.53257154 -0.04862981 0.25126398
0.83845723 0.13443671 0.26783641
0.60678631 0.08581358 0.37805433
0.69000513 0.00862775 0.42675402
0.06226798 -0.42564096 0.28463572
-0.13582667 -0.14805703 0.47973073
0.71358944 0.14622485 0.34620123
0.74116093 0.18294313 0.51007673
0.69892938 0.12301569 0.29570958
0.34013936 0.06105983 0.33348131
0.23127156 0.09612664 0.38168579
-0.20572181 -0.25975964 0.39338649
0.91262609 0.09833357 0.52905534
0.49957924 0.21650086 0.40960433
-0.44440263 -0.46181696 0.14934363
-0.20253615 -0.06814786 0.26554780
0.78252744 0.21625894 0.57123668
-0.12846967 -0.23830545 0.32885818
0.85455465 0.15908092 0.33275140
0.91283889 0.10315356 0.44328755
-0.27845298 -0.63712200 0.17962744
0.24732480 -0.02473162 0.37299351
0.38995981 0.31585345 0.44109470
0.01398770 -0.34719882 0.33948660
-0.05661181 -0.15139055 0.32196995
0.25109489 0.11377997 0.43765056
0.22695115 -0.21368674 0.30463021
-0.21155513 -0.15125113 0.31152890
-0.22805440 -0.51027769 0.21510504
0.80543572 0.19658692 0.37524095
-0.04645944 -0.03745854 0.50213053
-0.29887498 -0.37993523 0.34859321
0.56348365 0.08694341 0.49249662
0.38618524 -0.09543135 0.19616388
0.14283818 -0.36724604 0.20607696
0.54248325 0.35925488 0.37442082
-0.42230391 -0.38927792 0.25434030
-0.35423983 -0.24041597 0.22499543
-0.42903621 -0.36604736 0.29914412
0.00877257 -0.16409893 0.46492295
-0.45894123 -0.40518045 0.16393964
0.18346089 -0.13160686 0.29721951
-0.29949036 -0.22742758 0.27688692
0.76676835 0.12539114 0.53367189
0.28899358 -0.12868588 0.39710004
0.58457908 0.13842632 0.40919952
0.28011877 0.00708736 0.36850088
0.57692992 0.07524775 0.39836639
0.21214930 0.19998714 0.39093192
-0.07405348 -0.46773805 0.27728379
0.15881522 -0.15279859 0.23252879
0.73753647 0.19032028 0.48203774
-0.21183912 -0.51825561 0.05541837
0.02587034 -0.19370501 0.23398949
0.12669028 -0.39374766 0.18121522
-0.21258921 -0.49925267 0.03997046
0.34417609 0.21439477 0.51204484
-0.46709679 -0.30042689 0.45063519
0.27119652 -0.30122371 0.33831446
0.74662919 0.37834235 0.56474809
0.21641027 0.22347648 0.34168264
-0.36760862 -0.21690271 0.20399659
0.10222111 -0.24949539 0.21133527
-0.45708651 -0.45587157 0.19907242
0.32621426 -0.18674480 0.46001701
0.19330580 0.16656495 0.41164849
-0.53705867 -0.44524279 0.34915406
-0.42728177 -0.43247837 0.28735451
-0.28648132 -0.34162973 0.18405656
-0.54959266 -0.35560987 0.27160950
0.52411471 0.16113232 0.60104194
0.13304716 -0.15218395 0.25748640
0.37619949 -0.02836792 0.44627836
0.11520665 -0.40651198 0.34509190
0.68646254 0.09641802 0.47846970
0.11787652 0.00796674 0.36383484
0.36828303 -0.20261898 0.19826605
0.60668331 0.14090705 0.27908239
-0.22066038 -0.43387002 0.29673539
-0.05091548 -0.16019417 0.45073712
-0.09849526 -0.07102509 0.25227479
0.19005540 -0.27609331 0.13641612
-0.27372339 -0.64982282 0.25111363
0.13528475 0.10197540 0.44682469
0.45802052 -0.11803630 0.34612089
-0.06182317 -0.07440052 0.51609700
-0.23408711 -0.31602871 0.32074749
0.39011400 -0.21248218 0.34283608
0.64815531 0.08118502 0.41491621
-0.43873321 -0.20221471 0.20827607
-0.13151977 -0.45082745 0.32282318
0.60650714 -0.08605980 0.23388408
0.55694081 0.12244485 0.27332131
0.91246671 0.14761439 0.42280280
-0.20687233 -0.24840318 0.39241895
0.02083967 -0.17963381 0.45815288
0.64444331 0.13108329 0.41075702
0.84473181 0.09532490 0.25305325
-0.28422978 -0.17963708 0.22615639
-0.12363011 -0.19234838 0.22034666
-0.05656277 -0.24814188 0.20937398
0.95401418 0.13722333 0.53196089
0.25962213 -0.22640377 0.17017168
0.23890804 -0.12818187 0.24998239
0.82488763 0.21549195 0.59880030
-0.16697603 -0.50601365 0.22680734
-0.03289124 -0.36689587 0.11569072
-0.44071552 -0.32522059 0.21647763
0.92226558 0.18698595 0.39054721
0.03226844 -0.24485690 0.41696017
0.77597320 -0.00251019 0.33445797
0.77626854 -0.02231808 0.37034657
-0.09941084 -0.32392571 0.24449271
-0.04966355 -0.04117400 0.39491927
0.67928100 0.33238521 0.46041755
0.22694118 -0.18258565 0.42095869
-0.33250093 -0.19694451 0.35572580
0.34234187 -0.00348903 0.40226739
0.38522290 0.13666076 0.34106530
0.34774893 -0.11226785 0.38984125
0.35570874 -0.21024815 0.37107448
0.12992693 -0.13473513 0.39657865
0.33519311 0.15690534 0.35410071
-0.36811138 -0.32352567 0.19017335
-0.21486620 -0.53381127 0.12689575
0.95176504 0.20085244 0.37230068
0.63956741 0.45376143 0.47677345
0.81183637 0.04067869 0.46909643
-0.42782795 -0.50839345 0.12283321
0.60298848 -0.11223044 0.32232701
0.58500780 -0.14929850 0.44068509
0.10345056 -0.31286138 0.17764985
0.06644433 -0.35283752 0.25349328
0.39924824 -0.01254682 0.35794114
0.63230730 0.03840838 0.43708232
0.80138281 0.09918078 0.44825929
0.79590839 0.22565801 0.61603642
-0.07371359 -0.21039544 0.25193474
-0.60197713 -0.28786449 0.21816968
0.80211443 0.30164426 0.62660230
0.81761518 0.25734416 0.63588761
0.55395221 0.11124315 0.47281997
-0.08656881 -0.50959762 0.11324747
0.18923744 -0.25998721 0.29138683
0.36974020 0.04141356 0.52326782
0.72055161 0.41782951 0.58008728
-0.31782924 -0.13582993 0.24607071
-0.20979855 -0.46543046 0.23653840
0.57673976 -0.16999820 0.39644346
-0.17884312 -0.42556008 0.17881911
-0.10182598 -0.08413889 0.22171187
-0.07092455 -0.56112021 0.25883860
0.80676549 0.34160658 0.53987706
0.81280677 0.19370629 0.30509378
0.28305616 -0.17948490 0.29672026
0.18902014 -0.20740002 0.30499851
0.14909267 -0.38734245 0.35083590
0.59041380 -0.07341222 0.22488488
-0.22686484 -0.55344151 0.03792868
-0.35190325 -0.28055988 0.39828117
0.55221927 0.14829379 0.51074705
0.41760836 0.21872448 0.54838235
0.43632430 0.20352782 0.48730254
-0.07403698 -0.48686620 0.17635699
-0.26256003 -0.50681954 0.04618937
-0.19570141 -0.07089806 0.33527467
-0.12791271 -0.33265303 0.20970089
0.38509039 0.15224648 0.28897732
0.34666195 -0.29579632 0.32348039
0.67535106 0.45091519 0.46096505
0.44410417 0.16676220 0.57413064
-0.11330270 -0.28514482 0.19647982
-0.48622155 -0.42123214 0.22030064
-0.23148947 -0.17506959 0.33048095
0.78682496 0.37956457 0.64472587
0.66928347 0.02573303 0.24061282
0.85432493 0.11342219 0.38058104
0.42368804 -0.09064002 0.25225282
0.19770022 -0.20361886 0.36603920
-0.36364043 -0.41438156 0.14090469
0.44262046 -0.12200223 0.23208015
0.68341379 0.02726147 0.45726895
-0.03466854 -0.36836956 0.18727845
0.73470985 0.20619654 0.36577658
0.28500504 -0.14884392 0.42385676
0.85039963 0.31764533 0.48043166
-0.14196811 -0.04278853 0.37709941
-0.35544287 -0.23612213 0.46953400
0.15689871 -0.23254820 0.35682956
0.63377518 0.18577379 0.39593715
-0.02566963 -0.29129352 0.16053032
0.68091381 -0.01057818 0.33289996
0.67357623 0.16368281 0.37206953
0.90848614 0.07898205 0.52240346
-0.35935802 -0.50488447 0.25047589
0.01386275 -0.15976975 0.23519572
0.38968515 -0.22147620 0.38972365
0.31223959 0.01703213 0.25142558
0.17784743 -0.04656595 0.29425624
0.55221975 -0.08091415 0.25243725
0.61041356 -0.00807902 0.28237169
0.33934369 0.16316952 0.30744816
-0.29159375 -0.43969977 0.26374343
0.09949377 -0.10855876 0.43264831
0.84363514 0.25118113 0.35724608
-0.02198573 -0.41247884 0.19524686
0.73740781 0.19458334 0.33703378
0.09582472 0.14423431 0.35520001
0.48628964 0.25762931 0.45797037
0.37577117 -0.00201656 0.30635476
0.20835611 -0.34537038 0.32169081
0.69620208 0.08200332 0.42851102
-0.05384882 -0.48308403 0.25953479
-0.36693831 -0.27070031 0.22904200
0.66041332 0.12231874 0.37832944
0.52784566 0.14230079 0.34145057
0.71253379 0.17372280 0.31552829
0.06756244 -0.15140982 0.36843606
0.63484105 0.22925743 0.36952330
-0.01448798 -0.47528890 0.27901731
-0.36084093 -0.39777738 0.27907767
0.69818658 0.00893298 0.28257897
0.72478680 0.26547399 0.46346524
0.42434515 0.28679300 0.42337754
0.85091256 0.02526169 0.52807504
-0.18906317 -0.42015099 0.09911787
0.47552358 0.35786981 0.46305947
0.02192710 -0.28639136 0.16772413
0.70746883 -0.08473568 0.48899887
0.87896704 0.10466727 0.41437990
0.76993013 0.41133576 0.60994314
-0.32126198 -0.68801346 0.22145441
-0.00717184 -0.16948729 0.40827880
0.18869456 -0.28075002 0.23414055
0.73935145 0.19063586 0.30176585
0.76593245 0.34376942 0.52357841
0.66411407 0.07959999 0.56685167
0.73985988 0.12821722 0.37669835
-0.13889938 -0.23929604 0.35604728
0.10336124 0.09459534 0.42988504
0.53667172 0.19100826 0.45862148
-0.45089477 -0.43405051 0.28966131
-0.38545865 -0.29392498 0.28726819
-0.12591007 -0.10249260 0.30700056
0.32530734 0.09787827 0.27690757
0.16690564 -0.23704013 0.19803717
0.55017703 -0.21470877 0.43995834
0.12702950 -0.31261190 0.40196704
0.15208872 -0.09019309 0.42000113
0.79728376 0.11220725 0.28117600
1.00135204 0.09432324 0.46743394
0.34117418 -0.02435533 0.47742157
0.98368964 0.11691750 0.44275562
0.54431509 -0.03812155 0.49509628
0.23554482 -0.30373726 0.38000848
0.90891321 0.08844424 0.48366511
-0.05173502 -0.49519383 0.12067328
0.76973499 0.09293707 0.28634163
0.54590478 0.10454351 0.30459640
-0.24026435 -0.21938412 0.35141701
0.65764874 -0.02908442 0.34617714
0.65539737 0.09251926 0.30694351
0.07559618 -0.22490462 0.19970935
0.81002284 0.25492146 0.50673604
-0.33784514 -0.37680933 0.27230238
0.80213993 0.18743623 0.53971664
-0.07894301 -0.27968667 0.42248573
0.31340355 0.04339449 0.52720372
0.84546885 0.16476350 0.33629767
0.13156967 0.13039754 0.44407204
-0.03928430 -0.17522975 0.19004237
-0.14741533 -0.44760153 0.06161040
0.54077692 0.05042327 0.29615589
0.26447385 -0.14254172 0.29277618
0.08616124 -0.46707211 0.26650421
-0.24405481 -0.49171146 0.10412195
0.06379513 -0.35199647 0.20802419
-0.01764958 -0.52138730 0.30551603
0.05016759 -0.41650187 0.23077064
-0.38700321 -0.25188677 0.16666294
0.03114644 0.08533861 0.32174223
-0.22181950 -0.35223006 0.41506898
-0.00060197 -0.09798107 0.25062816
0.45428472 -0.09391083 0.38351140
-0.36243992 -0.39922379 0.16679820
0.37816396 0.10058768 0.53618556
0.87541755 0.27083176 0.52941044
-0.55855615 -0.35454415 0.31582376
0.11255754 -0.22138250 0.38434942
0.56288162 0.29253263 0.50673864
-0.09186280 -0.05023369 0.42804021
0.23535848 -0.04283790 0.42200154
0.47545990 0.05364921 0.52572990
0.69589590 0.21615999 0.34962827
0.27267278 0.00730753 0.40175440
0.83178730 0.08812753 0.33648720
0.57179367 0.37585606 0.51239820
-0.18910234 -0.37873479 0.23496203
0.28663986 -0.14727674 0.26081080
0.37858207 0.05829703 0.45299876
0.07873719 -0.24481169 0.24784276
0.83748685 0.21786822 0.48787477
0.12164155 0.08161203 0.38582474
0.01835452 0.01407558 0.29736706
0.35445234 -0.11891094 0.49519495
0.63570454 -0.13966461 0.42425797
0.45067078 0.11795395 0.34325886
-0.29948239 -0.33006281 0.25789150
0.75061244 0.09050729 0.45372901
-0.18046139 -0.20360578 0.17380106
0.14338866 -0.32685039 0.29067484
-0.12300524 -0.10160666 0.23590923
0.24236604 0.03708720 0.24788802
-0.36930001 -0.56464101 0.21122181
0.94072639 0.09996135 0.47105710
0.41050021 0.12529099 0.43788986
0.82845533 0.24446518 0.57701083
-0.19531546 -0.23378005 0.47119453
0.80515231 0.12031025 0.52901163
-0.39175986 -0.34471807 0.22266280
0.43148909 0.05397759 0.24401866
-0.04231797 -0.48934948 0.17454406
0.59171083 0.23662845 0.56806626
0.64371714 0.10071728 0.42270985
0.31266742 -0.25346425 0.31088908
0.46572609 0.09516416 0.49702132
-0.38388215 -0.27574671 0.20653092
0.77798353 0.10878066 0.41196693
0.24562181 -0.18093712 0.27428021
-0.23332383 -0.37616672 0.39418097
-0.04412179 -0.28994078 0.39969437
0.04293942 -0.00543675 0.37222590
0.20729941 -0.23848385 0.17393721
0.26011470 0.15625538 0.34229356
0.78832548 0.19242326 0.41809013
0.62010364 0.37719204 0.53723865
-0.01259213 -0.38303630 0.16305697
0.62605817 0.04550531 0.45800113
-0.20516747 -0.33748661 0.21428296
0.18821151 -0.12055245 0.50068298
0.67885817 0.34364654 0.39916486
0.66067361 0.35215324 0.64352718
0.26055585 -0.27206237 0.35739159
0.08847994 -0.23521396 0.26807490
0.33237090 -0.13510254 0.39069914
0.39082917 0.07704684 0.26888444
0.81324281 0.22489898 0.44524978
0.18194414 -0.21050653 0.36232428
-0.55628833 -0.30647082 0.15965693
0.82705081 0.40703027 0.38987190
0.33009266 -0.16806513 0.46874080
0.53924522 0.12099915 0.40202599
0.82203446 0.37637166 0.52147373
0.11807969 -0.27373526 0.34818212
0.22512871 0.10120682 0.45432751
0.32102584 -0.06929607 0.44131359
-0.00903407 -0.01780805 0.33738818
0.36329004 0.17133228 0.54676537
-0.06961246 -0.11744862 0.25786598
-0.46851454 -0.38742696 0.35865170
-0.56392314 -0.30816690 0.27312264
0.67160675 0.29651083 0.62858222
0.52221082 0.34302100 0.55815996
-0.13556488 -0.39053064 0.32079097
-0.37836903 -0.18623599 0.24555625
0.71058493 0.16134744 0.54725443
0.83663676 0.22594303 0.52286397
-0.24830308 -0.24581644 0.40772689
0.05568530 -0.44104995 0.19193547
-0.33115427 -0.21656846 0.24249471
0.66882633 0.40151880 0.66663422
0.39953814 -0.14427920 0.42238894
0.33883990 0.26598361 0.45751875
-0.52111188 -0.30904943 0.40069096
-0.24750107 -0.18437007 0.16300411
0.30779561 -0.09210574 0.31131523
-0.08352855 -0.38697253 0.22765731
-0.12878880 -0.32478701 0.29833662
0.43394965 0.16889582 0.36716649
-0.50912232 -0.39387135 0.37419539
0.71823416 0.45624415 0.59587026
0.74253703 0.17012095 0.53367693
0.72818281 0.39732311 0.50493195
0.08680554 -0.26714434 0.24232481
0.57185182 0.27008501 0.40772567
0.51931129 0.01920040 0.40154077
0.02644605 -0.22340212 0.37736720
0.44105744 0.20312188 0.43389040
0.52713757 -0.03794174 0.35060609
0.26519245 -0.00794268 0.52051858
-0.15300152 -0.10561992 0.29713842
0.17913864 0.04830677 0.48362441
0.60036739 0.34407824 0.44585076
0.73909179 0.48268047 0.54202850
-0.35172417 -0.58835517 0.27058254
0.71281350 0.40753924 0.50583668
-0.40122982 -0.43871326 0.19257702
-0.20162475 -0.52064937 0.08193408
-0.26363999 -0.23015630 0.27787739
0.08631340 -0.16029126 0.48087619
0.50787070 0.13497518 0.51927917
0.44048618 0.15556979 0.44006192
0.30571972 -0.05214537 0.33373587
-0.07543112 -0.33623287 0.23882300
0.30575571 0.00870938 0.26743323
0.01803196 -0.30370581 0.33986363
0.10642875 -0.37810448 0.10605526
0.28133995 -0.21960701 0.29241139
0.18467289 0.11473591 0.48246369
-0.39231889 -0.56314254 0.28129670
-0.23428641 -0.13666538 0.36243145
-0.27459104 -0.58213499 0.29832591
0.76345252 0.46570746 0.49954316
0.63578897 0.03106271 0.35110931
0.33377805 0.23999590 0.46990040
0.26673181 -0.19807979 0.27762415
-0.48563182 -0.26210417 0.15686314
0.51289006 -0.02930383 0.36209219
-0.06562084 -0.32734541 0.29098842
0.26785197 0.20798754 0.41645093
0.20537975 0.14082520 0.38267786
0.56903759 0.33798112 0.63130924
0.22992538 0.04699588 0.40590791
0.20597926 0.19290661 0.38750991
0.58361434 0.18544669 0.34747304
0.31385563 0.11779855 0.45671118
0.69561894 0.07994197 0.53291348
0.31614344 0.15975322 0.38474264
0.01221960 0.06296083 0.28211474
-0.00132689 -0.09509212 0.43762086
0.61206947 0.22947149 0.61585064
0.17273280 -0.09482899 0.46881487
0.57470555 -0.07803930 0.30439516
0.20295847 0.03587839 0.41562151
0.47914072 0.28572369 0.41866425
0.33329537 0.04782367 0.31924443
0.17788538 -0.12850107 0.44368909
0.26402363 -0.29525198 0.26480203
0.63624347 0.22228803 0.41206981
0.86148708 0.13309206 0.36347293
0.05769467 -0.09910883 0.45816362
-0.46967320 -0.37470411 0.33617481
0.62118016 0.34616907 0.61047050
-0.16067028 -0.48079780 0.35454982
0.32504789 -0.04847165 0.49573232
0.64412054 0.25325592 0.60128336
-0.38674057 -0.37901416 0.41649893
-0.32612832 -0.60758344 0.25838057
0.33850001 -0.21689431 0.22314731
0.02085906 -0.35637272 0.37983758
0.34390344 0.17428426 0.30413777
0.15354231 -0.26368153 0.40009262
0.83977059 0.19266410 0.59547442
-0.40640514 -0.59344405 0.25322041
-0.10038162 -0.01917729 0.30264655
0.67589085 0.06455968 0.29978885
0.01151622 0.02081389 0.43367226
0.50783450 -0.12284874 0.17698204
-0.46951015 -0.30122298 0.20442120
-0.05574552 -0.20822253 0.34115784
0.21694322 -0.36165838 0.22939176
0.58880163 -0.02812797 0.43166836
-0.55828607 -0.39226516 0.40447775
-0.45400092 -0.51407157 0.17783074
0.64981871 0.18283001 0.48477209
-0.08152644 -0.52979972 0.25010321
0.27565256 0.08883981 0.53198263
0.37271092 -0.02640984 0.50566492
0.51067672 0.24040385 0.64121087
0.01495710 -0.11774218 0.41025644
-0.27283282 -0.30402516 0.25954949
0.22949892 -0.29207286 0.34557982
0.44800790 0.10936960 0.31572728
0.38251927 -0.18654070 0.25421836
-0.07383804 -0.04787662 0.35474244
0.22780059 0.13781207 0.41624545
0.81314219 0.09084362 0.36346137
-0.35557295 -0.46216976 0.37017380
0.37817258 0.10291105 0.36062622
0.78458946 0.27041142 0.40365119
0.87568927 0.28461732 0.44154217
-0.33333586 -0.64057745 0.24930215
0.04993255 0.10835515 0.31110636
0.29840507 0.07394806 0.45406702
0.22374028 -0.06912113 0.42852228
0.72941308 0.14195366 0.41447112
0.43076311 -0.02364934 0.26616506
0.90484155 0.20133110 0.35933972
0.46521341 -0.10835864 0.18084434
-0.28127910 -0.59379666 0.14378352
0.68957930 0.11595012 0.39939965
0.39134102 -0.08780009 0.32440087
0.08832307 -0.24061234 0.25558797
-0.55422619 -0.41245326 0.41134359
0.82498373 -0.01460204 0.44203177
0.41209145 -0.24761539 0.42321588
0.67194565 -0.05844588 0.49516432
-0.28693530 -0.38225432 0.14011854
-0.39036249 -0.21858215 0.34932050
-0.19806928 -0.22917111 0.42673669
0.64283869 0.36185967 0.65907506
0.43668615 -0.09441823 0.48427341
-0.21769211 -0.52909505 0.17260694
-0.11814299 -0.28204478 0.42133772
0.17472320 -0.07757333 0.33821608
0.58157840 -0.03082524 0.21806855
0.38006668 0.04510552 0.37179217
0.10000736 -0.42787516 0.27993433
0.11603293 -0.22837687 0.42286435
0.58922058 -0.02648976 0.41561329
-0.20816245 -0.54251528 0.25821223
-0.23381930 -0.53482088 0.31346619
0.40498658 0.21044208 0.59847278
-0.08546015 -0.18591709 0.28703676
0.49985727 0.05911736 0.24015767
-0.42352541 -0.28541340 0.16932842
0.23491509 0.09123163 0.49986783
0.16843194 -0.33143277 0.39213430
0.31675928 -0.13213931 0.47399736
-0.17138664 -0.30615152 0.15064189
-0.27211696 -0.47178973 0.27844756
-0.06449816 -0.18698049 0.41958724
0.83442336 0.00195825 0.44898864
-0.33114699 -0.29233853 0.24857094
0.56308570 -0.05661132 0.39437947
-0.21493638 -0.54692982 0.21947096
-0.07245225 -0.17868697 0.39177292
0.30226041 0.05608752 0.50581117
0.86575465 0.06646925 0.41564856
0.61383476 0.02619081 0.31103850
-0.13618355 -0.25298313 0.26163271
0.39735517 0.06152427 0.45862152
-0.20765344 -0.21712835 0.37319066
-0.21839382 -0.49872729 0.14216508
0.82525334 0.25212725 0.31216691
-0.15605016 -0.56346936 0.14033333
0.61927022 0.08943150 0.52401177
-0.39534954 -0.51804089 0.29485085
0.33491666 0.20957523 0.39986346
0.14924932 0.00372362 0.29278785
0.67106590 0.13337646 0.30055080
0.50347208 0.15269677 0.56637794
0.78390289 0.12228715 0.46185776
0.93741910 0.21317858 0.44047662
0.86036359 0.03680485 0.51880822
0.07877819 0.03454641 0.44608950
0.35306437 0.19751703 0.32495031
0.26202324 0.11610962 0.58518016
0.78854421 0.32469727 0.54575407
0.23647979 -0.02379252 0.42073872
-0.30060318 -0.64615423 0.18592779
-0.00264718 -0.29143376 0.17701187
0.48614006 0.31105522 0.55270969
0.68989622 0.45280789 0.46259823
-0.18746448 -0.44799347 0.09136263
0.37539923 -0.16445430 0.44380477
0.39876869 -0.11740099 0.49668428
0.73668969 0.35030443 0.61009040
0.80990011 0.28980106 0.60799041
-0.39516670 -0.43578766 0.23697186
-0.31412379 -0.58731502 0.01403673
0.03863783 -0.43410725 0.18998578
0.58633847 0.18160270 0.50857299
-0.52485781 -0.31610252 0.17213324
-0.06573155 -0.30743718 0.41533361
0.78962935 0.39446521 0.60225068
0.18945834 0.02966185 0.28826447
-0.23384421 -0.16452721 0.49713479
0.03317704 -0.31280935 0.18616317
0.26144186 -0.23467095 0.33948575
-0.26819936 -0.57815238 0.09828531
0.61824192 0.06092770 0.39277897
0.33481540 0.16457721 0.38908659
0.57267568 -0.00763084 0.42000706
0.02305667 -0.03202195 0.54351069
0.45151484 0.32451810 0.39548896
0.48775297 -0.06212183 0.28058998
0.16387537 -0.00972016 0.46188280
0.67833571 0.18215655 0.58340937
0.62338028 0.38758747 0.44995298
0.18615534 -0.03690712 0.52673300
-0.41617723 -0.54764622 0.14126685
-0.17735786 -0.10089691 0.21516435
-0.04890129 -0.12042597 0.32024008
-0.30822644 -0.34485783 0.26870707
0.78598529 0.33337381 0.66426683
-0.29098052 -0.26087114 0.31781572
0.48980876 0.09434806 0.32241736
-0.49624060 -0.37879877 0.36552847
-0.28996446 -0.34955111 0.34726493
0.33414862 -0.16204953 0.44241527
0.33702394 0.08324479 0.46952032
0.60152407 -0.10002874 0.46981451
-0.17777939 -0.19235532 0.45242979
0.37720553 0.10908522 0.29920628
0.07644618 -0.06420198 0.23295591
-0.45778565 -0.20752166 0.27253012
0.07428133 -0.33863075 0.30130260
0.09016666 -0.00797979 0.39419450
-0.44924974 -0.45340517 0.08535385
0.73657007 0.04521658 0.29742818
0.23495200 -0.24901148 0.29720469
0.01702036 0.08939019 0.30226310
0.24089603 0.08274578 0.31538605
0.29067118 0.11888905 0.52810055
0.72589546 0.35642006 0.48274500
0.84113313 0.13049019 0.44852342
0.46203647 0.21519112 0.60525572
-0.41738022 -0.32562408 0.18481548
0.51671013 0.24095477 0.37426919
0.66137423 0.15371167 0.44556476
0.78975712 0.33814040 0.53612575
-0.37021601 -0.55778863 0.02916150
0.01529408 -0.30169889 0.28256558
0.54201892 -0.07663484 0.37966784
0.84933888 0.10270846 0.46494283
-0.41366518 -0.48912702 0.29386810
-0.37809082 -0.59675947 0.29144218
-0.22550447 -0.25276674 0.33966721
-0.31919398 -0.29333425 0.30760447
-0.44345136 -0.24686488 0.31042178
0.60545127 0.03717088 0.26908888
0.47767562 0.19069033 0.38397990
0.52664710 0.11947853 0.37544895
0.55568980 0.17944838 0.45574503
0.55991041 0.09356236 0.55124195
0.66237929 0.11289294 0.40363449
0.70417517 0.45924932 0.46209229
-0.05713636 -0.37881897 0.36224479
0.69159137 0.39893762 0.46963521
0.84693708 0.04363574 0.36198119
0.03164440 -0.19461896 0.34083368
-0.08749869 -0.47300613 0.29820539
-0.37308830 -0.41612549 0.14088640
0.01670177 -0.35934553 0.31955336
0.19877005 -0.25088975 0.39763844
-0.43196158 -0.30563289 0.20353125
0.90169907 0.05076577 0.40098114
0.34560031 -0.00500293 0.48719818
-0.29033968 -0.49707811 0.32682304
0.71640704 0.21206622 0.48150648
0.47812615 0.17555012 0.58102158
0.69047855 0.13392206 0.46986862
0.27969962 -0.29704087 0.36640707
0.45895463 -0.20574948 0.35216369
0.03252841 -0.45441295 0.24840148
0.50437308 0.15364245 0.28178435
0.44090842 -0.27298613 0.40507255
-0.21313982 -0.09543678 0.21129762
-0.32524082 -0.48093452 0.30464556
0.78531578 0.28781619 0.43826168
-0.43511670 -0.42917977 0.19704221
0.75605709 0.20051503 0.54051007
0.77586938 0.03901582 0.36449801
0.74808583 0.18471762 0.46343115
0.77548839 0.06190337 0.51989678
0.03365020 -0.13044504 0.29225339
0.35137652 -0.20050851 0.16100131
0.13184519 -0.24608081 0.33000822
-0.33058648 -0.57490307 0.08629325
0.18515247 -0.21005192 0.19170412
0.26786119 0.05298506 0.46967426
-0.20179858 -0.16651246 0.38162100
0.42736306 -0.08372511 0.25812672
0.23622254 -0.24096843 0.35038190
0.03550835 -0.35161461 0.13923041
-0.29127856 -0.37676511 0.09947910
0.31692448 -0.15176636 0.33935336
0.68386232 0.39241869 0.55762238
0.04221169 -0.13958008 0.47696626
0.30492832 -0.29454505 0.35811257
-0.52895535 -0.35219067 0.13355309
-0.40231978 -0.33855270 0.33744121
0.19657228 0.03634658 0.52218291
0.01013166 0.07090594 0.37887914
-0.33468047 -0.22239551 0.29106250
0.81896882 0.08311927 0.27390281
-0.43912324 -0.47722146 0.32874226
0.18072660 -0.32194030 0.21966808
-0.04382128 -0.18997669 0.37273142
-0.30958015 -0.47513298 0.26305912
-0.09441780 -0.34352878 0.30101255
0.19017380 -0.33209032 0.16526762
0.64248235 -0.00646927 0.47309094
0.16494320 -0.16704403 0.40696733
0.11720753 -0.25142959 0.16610123
0.44045699 -0.00367883 0.48025911
0.16674932 -0.14522052 0.27239106
-0.30196719 -0.17127308 0.20776463
0.86536342 0.05233921 0.39710370
-0.47800852 -0.32248801 0.19277510
0.17826420 0.10183269 0.48443527
-0.31212646 -0.23713210 0.29448415
-0.44741502 -0.54294163 0.29868746
0.03562857 -0.08297007 0.42979306
0.19368823 -0.22979959 0.36670844
0.11527409 -0.31544193 0.21319520
0.76262582 0.16083342 0.34981495
-0.16203471 -0.62526143 0.30283469
0.19318368 -0.00515080 0.47414570
-0.07204494 -0.15927674 0.48758446
0.46632144 0.18156064 0.43557761
0.77543568 -0.00798368 0.45040561
0.00164991 -0.23359099 0.43326693
0.47425766 -0.22007683 0.36482502
0.74166842 0.26142112 0.59591987
0.53130612 0.32627688 0.46358656
0.07801777 -0.03282908 0.51799551
-0.19379949 -0.49583638 0.14840733
0.46065823 0.26222721 0.51620450
-0.25985243 -0.53490304 0.30212515
0.10175471 -0.35219113 0.18568585
0.60508199 0.18762541 0.33995603
-0.17298994 -0.07413573 0.35030390
0.21622710 -0.25743045 0.22125958
0.55043979 0.27819051 0.46859834
0.76628804 0.13544968 0.54737669
-0.38247505 -0.58350596 0.28416792
0.67090729 0.30921052 0.55223153
0.56371316 0.26871714 0.40722878
0.10773980 -0.07684408 0.39037621
0.72102392 0.24378868 0.36538265
-0.28367976 -0.14558114 0.19329274
0.81577599 0.04952266 0.35413441
0.63589210 0.07880678 0.51446405
-0.34210747 -0.43189829 0.26397521
0.83740679 0.08149861 0.35063852
0.28743607 0.18139677 0.56899916
0.65871269 0.17893007 0.47041226
0.59084288 0.30249710 0.59917373
0.52188668 0.35174394 0.39930517
-0.20596423 -0.09525171 0.38304487
-0.23122216 -0.37887097 0.30215481
0.55182409 0.34253543 0.37394974
0.27026678 -0.36870477 0.36306276
-0.27460827 -0.32714211 0.30038181
0.35142131 0.00437325 0.45454108
0.47605876 -0.13235239 0.27706969
0.30897877 -0.15790501 0.40684564
-0.13547227 -0.07719280 0.25300182
0.64608316 0.00161556 0.38435892
-0.07885538 -0.16388442 0.24548754
0.58377813 0.11975109 0.57205958
0.45888091 0.08292078 0.51675664
-0.21582636 -0.26900070 0.26047572
0.65552895 -0.07107246 0.32096307
0.41164120 0.04040969 0.31603759
0.04894420 0.04175574 0.31502177
-0.10835315 -0.06688475 0.50889206
-0.43686911 -0.42178777 0.10026180
0.78847026 0.23774325 0.43985858
-0.12514354 -0.22198610 0.20466641
0.60103787 0.13535619 0.45172037
0.73842798 0.09507792 0.30214037
0.01480077 -0.00844032 0.25613123
0.59852325 0.13496533 0.45340061
0.40381535 -0.19238190 0.22092843
0.56906064 0.07124127 0.42583565
0.91856141 0.09679919 0.38596881
0.12035240 -0.41665137 0.37043271
0.87549970 0.16157476 0.57122830
-0.55281105 -0.33552951 0.39184014
-0.21290791 -0.32900098 0.36841323
-0.00774116 -0.31995489 0.30690289
-0.17393193 -0.51259200 0.11639110
0.56537596 0.04718536 0.39216829
-0.12312934 -0.48590378 0.24957560
-0.37116493 -0.34374410 0.23659457
0.46076705 -0.05004968 0.47305930
-0.50624494 -0.28966849 0.22284066
-0.43212345 -0.41957279 0.15366233
0.06870725 -0.05259053 0.46685810
0.20293879 0.16863935 0.44315791
-0.50955321 -0.32110006 0.19706817
-0.11794956 -0.51163828 0.14135966
0.01810743 -0.33236909 0.29614686
0.41435952 0.31952572 0.38499819
-0.29923330 -0.30980045 0.15099086
-0.00328892 -0.18984298 0.41632392
-0.22391949 -0.28534713 0.34220524
0.73885099 0.09620376 0.48625133
0.60790401 -0.00988747 0.41189373
0.49430460 -0.03227606 0.34404735
0.03065538 0.00997890 0.24086558
0.28094992 -0.24244342 0.33697143
0.44626945 0.04970734 0.41226576
0.00464649 -0.35439311 0.33539586
-0.36172249 -0.31256202 0.33319909
0.77867716 0.12346641 0.42552876
-0.53005604 -0.34620960 0.33507474
0.29852791 0.10967795 0.36534644
0.25474120 0.15343664 0.31291809
0.71644224 0.37822490 0.67746481
0.66753982 0.06214590 0.42653378
-0.38224627 -0.27699946 0.19191258
0.75790531 0.13515036 0.31648721
-0.43520232 -0.33499068 0.17673946
-0.11360472 -0.45690736 0.15256640
0.79780388 0.27925570 0.40766742
-0.10940297 -0.53707880 0.13898150
-0.19701708 -0.56047691 0.05256222
-0.11995356 -0.10691999 0.22143815
0.40966304 0.05039099 0.52871609
-0.29477369 -0.28722125 0.40842217
0.75360233 0.45106563 0.43695927
0.71157442 0.42298423 0.44610910
-0.37832047 -0.17295460 0.23748730
0.59657391 0.06824888 0.47352100
-0.40946885 -0.35080579 0.27928338
0.81951177 0.15537021 0.30770733
-0.08992061 -0.56349718 0.32772753
-0.21885727 -0.56108542 0.27605930
-0.06516832 -0.43718796 0.27563858
-0.02440793 -0.07080211 0.41722042
-0.10541321 -0.28159648 0.40418766
-0.04769662 -0.11333270 0.32509185
0.19467595 0.07079925 0.28598008
0.25279612 -0.31536460 0.33380622
0.38898683 -0.02450341 0.23096058
0.81879958 0.20230127 0.37339800
-0.36097063 -0.36620620 0.18326176
0.61107212 0.31519221 0.35047970
0.36149063 -0.08668364 0.19018526
0.44533949 -0.15991161 0.44522040
0.38308447 -0.20380266 0.45341021
0.34925735 -0.19124870 0.30957740
0.83446581 0.25690273 0.44698013
0.20726272 -0.17842731 0.21148085
0.20198362 0.08930651 0.50493469
-0.32417713 -0.41291848 0.08299079
-0.10304204 -0.17304877 0.26083897
0.66338288 0.15637140 0.49130349
0.66743388 0.23642588 0.59890362
0.59076932 0.20518674 0.39637555
-0.18080647 -0.06867018 0.23375164
0.83842132 0.16923560 0.51452859
-0.15574340 -0.01786892 0.24965177
-0.09719478 -0.04893237 0.30531534
-0.20752710 -0.16968315 0.44551831
-0.35352204 -0.36018243 0.17053221
-0.21649154 -0.24934357 0.18315193
0.23470947 -0.26328815 0.39744526
0.35129010 -0.21285556 0.43894063
0.70255811 0.02251744 0.53471821
-0.05559783 -0.35533775 0.21902081
-0.30864992 -0.31068028 0.29819309
0.79372973 0.16699818 0.32672803
0.11688959 -0.40746549 0.37025732
0.41630343 0.16344303 0.53194257
-0.04861132 -0.44210636 0.19523972
0.68285064 0.16343611 0.28452344
0.49613781 -0.08965949 0.35556496
-0.45017090 -0.48154222 0.17733639
0.63943396 0.34869315 0.36843348
0.51107991 0.23306056 0.52683725
0.69490153 0.40416492 0.44641829
0.08529410 -0.26065503 0.29185986
0.77588051 0.34088741 0.44245427
0.73481296 0.36813946 0.44682841
0.79159565 0.17502840 0.44447867
0.05653489 0.07186475 0.35097447
-0.06066980 -0.21982856 0.43754538
-0.23030792 -0.57735307 0.31866995
0.61940485 0.08733805 0.36261035
0.11409091 -0.06381937 0.38935409
0.69958822 -0.08562437 0.44688951
-0.49595535 -0.26338801 0.16280696
-0.21627001 -0.49753388 0.11475470
0.03204891 -0.16368749 0.45881929
0.22480797 -0.04437938 0.30932681
0.70968891 0.02594053 0.31520057
-0.25777400 -0.55409086 0.21026548
-0.19188065 -0.59430693 0.27077306
-0.34348702 -0.35213164 0.22280981
0.67070309 0.35654816 0.37859663
0.74941162 0.21563768 0.39924249
0.36904109 0.15095141 0.38328152
0.09480029 -0.36414748 0.28070352
0.84282112 0.18941921 0.60919678
-0.31095579 -0.30440368 0.43125738
0.55704606 -0.07296939 0.28758932
-0.37715479 -0.46191416 0.38678520
0.11905480 -0.30884794 0.19221382
0.26649539 0.01210176 0.30935113
0.65073596 -0.06933885 0.38807768
0.20038291 -0.31760215 0.30274138
0.45075701 -0.01493685 0.47975194
0.27330897 -0.22574761 0.44463904
0.90767494 0.05425380 0.53086173
0.67904572 -0.02776319 0.36722513
-0.44084367 -0.50031459 0.35161517
0.01332212 -0.17308091 0.23885615
0.17207424 0.07903699 0.33324410
0.31009870 -0.14087629 0.41397260
0.41485496 0.15248607 0.40548527
0.28930018 0.01524658 0.45606840
0.19430459 0.13250224 0.36385864
-0.52807424 -0.23691287 0.17617322
0.71728962 0.22484612 0.59930601
0.20082508 0.05365716 0.48574128
0.25761843 -0.07440171 0.19106840
-0.26045470 -0.10601559 0.29153967
0.53512058 0.13449037 0.36816436
0.98057358 0.12046344 0.43238193
0.25889489 -0.25777808 0.18375769
0.56929470 -0.12684364 0.42905104
0.47235909 -0.12764336 0.25629667
-0.36737372 -0.28708425 0.30275052
