ply
format ascii 1.0
element vertex 1140
property float x
property float y
property float z
end_header
-0.39451432 0.04952754 -0.61449513
-0.02995973 0.36296370 0.16052699
0.28692686 0.04855469 -0.82205766
-0.51962045 0.03890859 -0.48334605
0.17365071 -0.02326016 0.76721923
-0.02519484 -0.02656021 -0.83329780
-0.43113199 0.00677560 -0.62611610
0.31641014 0.16038425 -0.67982404
-0.00291945 0.15354506 0.78759469
-0.16191091 0.34107389 0.12953491
0.05634363 -0.34049794 0.33101514
0.10329910 -0.05365521 -0.82492517
0.48484567 -0.19966970 -0.37750116
0.33165071 -0.01311171 -0.69765857
0.64777096 -0.04343586 0.16187893
0.38097167 -0.07510835 0.61001279
0.54003744 0.15194948 -0.13670718
0.08701599 0.05464259 0.82565077
-0.11906082 0.19992499 -0.78481358
-0.54915164 -0.10649191 -0.33651412
0.37515241 0.15817304 -0.63781107
0.32867963 -0.27645289 0.36981465
-0.04143051 -0.02367549 -0.85214751
-0.22010048 -0.02680203 -0.85694702
0.20102393 0.19090691 -0.61414503
-0.00941484 0.21113997 0.70193098
0.36417265 0.32994612 0.09729785
0.05996013 -0.03657181 0.85820415
-0.27900669 -0.09014924 0.80988347
-0.04612709 -0.31982875 -0.45942416
-0.13802404 0.26737475 -0.61825733
-0.03672862 0.03063927 -0.84160002
-0.45632239 0.18165280 0.44206249
0.03401681 -0.34974998 0.33921592
0.09236267 -0.36319419 0.08172700
0.09058577 0.19244177 0.65699675
0.22673975 -0.04977989 0.72740906
0.46786113 0.26079056 0.06093012
0.33482462 -0.14389774 0.62391687
0.44615679 0.18995243 -0.42790062
-0.05562028 0.35460742 0.16693684
0.19341761 -0.15929350 -0.77423998
0.22060167 0.27552094 -0.49157106
-0.46055009 0.16033101 0.46972043
-0.29245779 0.04803401 -0.67543007
0.00862966 0.21506187 -0.69612068
-0.15841296 -0.35682214 0.30764519
0.30663790 -0.23824532 0.53142933
0.38241121 -0.22021678 -0.46027792
-0.15815850 0.14440359 0.82134485
-0.38885550 -0.04856609 0.72427957
0.00051111 0.00484098 0.84936118
0.01308115 0.23800264 -0.65543770
0.29785406 0.27960278 -0.41859194
0.46709597 -0.10626598 -0.49658955
0.30401947 -0.15660940 -0.63558039
0.10445094 -0.34726752 0.10220676
-0.61254586 -0.03040810 -0.18137975
-0.27849437 0.01450323 0.75209199
-0.23574189 -0.02839659 0.83479412
-0.55075967 -0.07550966 -0.42765623
-0.64300313 0.16006886 0.08161044
0.42954009 0.27533750 -0.17442130
0.30611092 0.18031297 -0.62809297
0.57607235 -0.10189745 -0.35107782
-0.65804696 0.04543786 -0.14771095
0.65113809 -0.10874137 -0.16500692
0.26211210 0.26258399 0.48712027
-0.06141055 -0.00860993 0.86224321
0.17103204 0.38079594 0.17055765
-0.00912402 0.24366976 0.66024128
0.58529204 0.06183788 0.23206030
0.21294176 0.12176087 -0.76667757
0.35855241 -0.11945306 0.59687190
-0.05698007 0.06830615 0.86535651
-0.39373338 -0.18274308 0.54814365
-0.49490564 0.06615499 0.49033588
-0.46000069 0.19427885 -0.41505515
-0.59303492 -0.07103860 -0.14856583
0.14504146 0.20482840 -0.61378269
0.56478541 -0.01949816 -0.42410102
0.24655841 -0.30890870 0.22706256
-0.01785199 -0.20821073 -0.69881031
-0.30485172 0.03434059 0.70146909
0.02120689 0.01727949 0.83334053
0.15754611 -0.04978447 0.77143236
-0.28007621 0.24787133 -0.56397914
0.57971360 0.11406581 0.09090647
-0.18051846 0.15985435 0.77949809
0.17040339 -0.33436190 0.00159492
-0.21751544 -0.12315274 0.76097400
0.00436111 -0.31170227 -0.49833987
0.16313832 -0.33383949 0.12940524
0.14990143 0.35478876 0.32218279
0.46138313 -0.14176188 0.47883662
-0.56858966 0.13953491 -0.34953435
-0.38424800 -0.27348700 0.36715415
0.18061800 0.00458345 0.82463946
0.23479268 -0.00664375 0.78217157
-0.01697914 0.05594210 -0.85832155
0.17878612 0.04526605 -0.86871542
-0.49140366 0.07541508 -0.48637714
0.33472404 0.20477139 0.56797844
0.03570929 0.02937357 -0.83603243
-0.27882777 -0.17158166 -0.64496379
-0.39172475 0.17893347 -0.52248189
0.60581759 -0.18628641 0.14246107
-0.21310332 0.26875177 0.58052256
-0.02399598 -0.10457387 0.77855354
-0.18339185 0.02667558 -0.76090393
-0.37219136 -0.33446621 0.11883730
-0.32923905 -0.13966581 0.71293061
-0.52050646 0.05236212 0.47824364
0.62681157 -0.11689954 -0.21804196
-0.19605457 0.17080756 0.76517252
0.11819586 0.13311955 -0.70740146
-0.18412292 -0.21388576 -0.57267330
0.28510003 -0.23761813 -0.55811361
0.58551986 0.09175994 0.16619113
-0.58273612 0.11151001 -0.33790617
0.50227068 -0.23006584 -0.22697032
-0.00205983 -0.33432135 -0.38325199
0.17113542 -0.00772459 0.80649786
-0.59297597 -0.07154432 0.21650412
-0.04043198 -0.04146062 0.82861605
-0.18868125 0.33263178 0.01151694
0.53418213 -0.10582679 0.43241131
-0.19489604 0.12262824 0.77092324
-0.01214974 -0.12182080 0.80259742
-0.53563349 0.21140242 -0.23719720
-0.32563134 -0.07910580 0.79152967
-0.03494451 -0.08658095 -0.80135360
-0.62754795 -0.01989917 -0.22034694
0.47903227 -0.18919330 0.39288543
-0.56923739 0.18659527 -0.24716996
-0.02477397 -0.01694916 0.84019305
-0.04608487 0.04422094 -0.86101299
-0.57724898 0.21775323 0.04671945
-0.35253319 0.08153820 -0.61543817
0.11473308 0.06448124 0.82443077
0.51276869 0.19125654 0.03675271
-0.34666870 -0.35859094 0.03062951
-0.07055149 -0.06089210 -0.80807198
-0.34184212 -0.33231701 -0.20437870
0.62118707 0.04323716 0.07565020
-0.23349892 0.25264826 0.59454469
0.18826435 0.31645641 0.43584576
0.10423147 -0.35059175 -0.05523777
0.39987051 -0.28477475 0.15570648
-0.00178649 0.02933465 0.85010077
-0.15370005 -0.16488182 -0.67672239
0.13917492 0.09127329 -0.79460978
-0.04140183 0.16435676 0.79308332
0.41515591 0.29897888 -0.14858358
-0.05077921 0.13721781 0.84692316
-0.25264833 -0.28998465 -0.43660648
0.41325149 -0.14588872 0.52517743
0.17132945 0.32489986 -0.41488818
-0.48931366 -0.07910074 -0.58700106
-0.13038359 -0.23005198 -0.59392717
0.19392201 -0.03372939 0.75911702
-0.13838092 -0.06463051 -0.83649204
-0.01686299 0.25359984 0.63620591
-0.04807744 -0.03431955 0.85198094
-0.25587147 0.31930958 -0.13603220
0.59971093 -0.05533135 0.34104462
-0.25388084 0.10570306 -0.69786041
-0.13651160 -0.17327087 -0.64634377
0.54965976 0.04591952 0.46601869
-0.08126623 0.03045819 -0.82285490
0.37054072 -0.21173933 0.52452338
-0.48276140 -0.22889443 -0.03927420
-0.40673625 0.08750877 0.55558788
0.10910711 -0.01903824 -0.79187562
0.20187206 -0.15019329 0.77138868
-0.03347897 0.04336976 0.86732516
-0.57755452 -0.10464134 0.16621215
-0.01659509 0.00353918 -0.83908241
-0.14592883 -0.09418577 -0.79094112
-0.23993811 0.24192492 -0.62952715
0.01210932 0.12798874 -0.80067802
0.16731493 -0.05554267 -0.75723335
0.61571539 -0.18823085 -0.05400888
0.30694390 -0.27296673 0.46556756
0.40910458 -0.03327079 -0.61647425
-0.02279669 -0.33060086 -0.40920192
0.05652424 -0.34468248 0.32469212
0.01197241 -0.11321058 0.83360837
-0.44943352 0.02858056 -0.58164006
-0.43846304 0.07057951 0.55358835
0.00987238 0.07753679 -0.81851989
-0.26200983 -0.20374161 0.59617497
-0.06375492 0.14527596 0.83118753
-0.01814919 0.19315710 -0.74725997
-0.27649385 -0.09176121 0.80382257
-0.26516910 0.10275515 0.67358883
0.12430831 0.36761011 -0.26808282
0.11636150 -0.14674216 -0.83928840
0.24819920 -0.17982516 0.71520546
0.26700543 0.26582259 0.46980434
0.41644789 0.00664737 -0.65474054
-0.03197868 0.02485579 -0.86048609
0.17485767 -0.33805874 0.00112531
0.15548975 -0.15284693 0.81206195
0.02217779 0.01761197 0.84360007
0.07163074 -0.26064377 0.66980668
0.19432050 0.10872336 0.78916192
-0.41561609 0.20710284 -0.45284929
0.24003918 0.00188800 0.79069598
0.24725034 0.38380903 -0.01520735
0.29865282 0.24772587 -0.48372577
-0.58547026 0.18555083 -0.21934619
-0.27850088 -0.15281294 0.69800975
0.31351098 -0.08351279 -0.64429777
0.48981740 -0.03369439 -0.52280957
0.45457107 0.12575215 -0.60767131
0.16646646 0.11296524 0.76173588
0.06339493 -0.14662589 0.83864830
-0.02211033 0.08734623 -0.85129362
0.46521202 -0.24581995 0.27686934
-0.26300273 -0.25628483 0.49561179
0.48212285 0.25123030 0.02878102
0.28121156 -0.28864708 -0.41364212
0.04240303 0.04532166 -0.80836131
-0.43597062 0.13428879 0.50782996
-0.14958932 -0.03061731 -0.87041675
-0.05383581 0.01054429 0.84665821
-0.27314477 -0.37129312 -0.15704186
-0.34367356 -0.28619421 -0.34998564
0.20660244 -0.00475808 0.78915743
0.27459093 -0.00425919 0.76309679
-0.60695498 -0.03433139 0.21261345
0.05800320 0.02615156 -0.86667316
-0.08491923 -0.36799688 -0.25668084
0.13231604 -0.01524090 -0.81552511
-0.17075406 0.21668517 -0.74460893
-0.67255084 0.09305527 0.08954467
-0.33894336 0.09543792 -0.62349351
0.03167778 0.00718885 0.85486549
-0.09648932 -0.10141423 0.74442725
-0.20979653 0.16503962 -0.76278805
0.09353280 -0.22892892 -0.72542187
0.23075069 -0.23155368 0.66779083
0.26095323 -0.31417958 -0.07181607
-0.55411371 0.18645511 -0.28855657
-0.11962181 0.14425603 -0.83106019
-0.00270630 -0.36597734 -0.26607149
0.19708510 -0.32472825 0.22420524
-0.60255831 0.01273473 0.32205974
0.50920103 -0.23875897 0.19773983
0.35854163 0.26908254 -0.39826893
0.18727501 -0.09898221 -0.77568457
0.50743127 0.20126120 0.11895155
0.25459957 0.21397307 0.58579818
-0.45509455 -0.05240165 0.65200749
0.44801574 0.11905549 -0.62355806
0.36188760 0.06924458 -0.77277243
0.21475607 0.00114591 0.80923123
-0.11861538 0.02366441 0.79632298
0.09150974 -0.34720283 -0.24381997
0.30476824 0.03527459 0.80652837
-0.18572539 -0.15871677 -0.68641445
0.24899058 -0.28853551 0.48652838
0.11923505 0.13430651 0.71066075
0.09040939 0.07666678 -0.80190661
0.21221039 -0.15044250 0.75057823
0.22794435 -0.27084220 0.54175838
-0.31501080 -0.04713273 0.80950405
0.10703839 -0.13309419 0.85540593
0.03348106 0.01808043 0.85242290
-0.08274877 0.03811286 0.81733945
-0.02620895 -0.19173384 0.70579852
-0.00289888 0.06148289 0.84657552
0.01086486 -0.36361877 -0.24110568
-0.54784141 -0.00621906 -0.44932144
0.00478361 -0.35497173 0.29106104
-0.52636790 0.07164567 0.45867651
-0.43645056 0.27462991 -0.01393956
0.04796973 0.13462637 -0.74416419
0.07493879 0.15764291 -0.70757614
-0.00185000 -0.04725794 0.84618509
0.25409325 0.13981965 0.72483047
0.40033683 0.14291777 0.65951114
0.19607858 0.22707675 0.56658970
0.30257590 0.35032532 -0.20004016
0.25560254 -0.31260232 0.20924746
-0.08000910 0.03318405 0.82504084
0.59826795 -0.02781264 0.32963534
0.43485775 0.30123325 -0.06173476
-0.11713862 -0.09478024 0.77331174
-0.28369071 0.05765129 -0.68338424
-0.08100286 0.03953738 0.82826486
0.10434017 -0.06419713 -0.83714000
0.18702866 -0.01922076 0.77508914
0.21552749 -0.12926313 -0.76165899
0.06588988 0.09651408 -0.75749972
0.00240090 0.02383711 -0.84068516
-0.19817784 -0.17353824 -0.65462646
-0.11293997 0.24320138 -0.69441562
-0.05656445 -0.34572667 -0.36789140
-0.40770974 -0.10925115 -0.69966989
-0.27073688 -0.05130375 0.83939919
0.28205199 -0.30973545 -0.08773681
-0.17005184 -0.39443372 -0.04668422
0.28866354 0.02435273 -0.81021252
0.56773960 0.10300743 0.09439776
-0.47586184 -0.21097131 0.29293422
-0.59776703 0.02803968 -0.36174176
-0.02794089 0.28216472 0.58016581
-0.23046803 0.06858158 0.71918074
0.03840155 -0.37078817 0.05795414
0.26650635 -0.31619414 0.20827506
-0.42965191 -0.10577371 0.67446027
-0.44931150 0.23451099 0.34645237
-0.07112045 0.33992179 0.34171129
-0.54860221 -0.04870911 0.45069555
-0.22944449 0.31487454 0.30576474
-0.49866859 -0.12289293 -0.48144197
-0.22054002 -0.26764503 0.49362790
0.09354797 0.02753138 -0.87264803
0.16951470 -0.00047328 -0.81436555
0.17001949 0.39247152 0.05445845
0.43740475 -0.19586954 0.43436022
-0.40855526 -0.30792564 -0.10022056
0.12978295 0.13597204 -0.69746418
0.45451856 -0.21245328 -0.38774106
-0.35205883 0.03988843 -0.66159474
-0.66774842 0.06209561 -0.09057802
0.55407911 -0.14554274 -0.35885039
0.49363296 0.12098861 0.54759686
0.09295324 0.27002160 -0.54704648
-0.35834774 -0.12432171 0.73130550
0.17722023 0.28171337 -0.47583937
-0.11761580 -0.13535276 -0.70700517
0.05521504 0.13845474 0.73513073
0.48675023 0.20805445 -0.28856450
0.05258824 0.10477329 0.76862120
-0.41877154 0.12832649 -0.53653466
0.06831635 0.08312493 0.77619130
0.09093386 0.05609098 -0.81970749
0.18287538 -0.12665493 0.79588846
-0.03787789 0.05084130 -0.86535800
-0.25528063 0.17597384 -0.70087263
0.55497299 0.11937498 -0.23206739
-0.26815084 0.19501565 -0.68503811
-0.03972880 0.23754789 -0.69699795
-0.08669174 -0.03980954 -0.84969625
0.12220744 0.25070827 0.56239669
0.48527235 -0.24081440 -0.24781503
0.15858291 -0.03860900 0.76416481
0.47566004 0.19766731 -0.29723788
0.27526514 0.12509540 0.76006352
0.47048857 0.24465438 -0.17486813
-0.45512827 -0.25189669 -0.18667842
0.45967047 0.26122576 0.09154307
0.37191863 -0.28889742 -0.05890799
0.00926689 -0.25192500 -0.62681546
0.17189289 -0.21574130 -0.74067922
-0.61469293 -0.05478119 0.01311697
0.62445342 -0.00858846 -0.26350952
0.14143165 0.02560944 -0.86946559
-0.18279806 0.07800542 0.75049748
-0.11259004 0.13607717 0.85415914
0.16110369 -0.03569129 0.77363629
-0.49976471 -0.15133775 -0.39883268
0.20652922 -0.32563916 0.20032398
0.18295353 0.20501958 -0.60460157
0.55443244 -0.04895038 -0.43216575
-0.55499274 0.00312839 0.42405246
-0.20052069 0.01282146 -0.80277054
0.41640871 -0.04814815 -0.60021012
-0.35539288 0.19859726 0.56465158
-0.47728471 0.20871174 0.36605150
-0.47483246 -0.16528254 0.46643906
0.21844228 0.13318050 0.75301418
-0.14094522 0.17109813 0.81875878
0.04645042 0.06119645 -0.78972570
0.49360388 0.21734213 0.16164515
0.39825431 -0.26461000 0.30035102
-0.43498249 -0.15371592 -0.57635462
-0.39593809 0.28397649 -0.13797337
-0.10378039 0.03720463 -0.80823537
-0.34580843 0.09365898 -0.60185813
-0.44133154 -0.28970666 0.06083861
0.55793266 -0.15801431 0.33647884
0.02203298 -0.00698374 -0.84145883
-0.39045536 0.18175747 -0.52382735
-0.04800862 0.04725457 -0.87347617
-0.20336935 0.03864356 0.73555172
-0.28976984 -0.08266373 -0.81159687
-0.58566168 0.08899812 -0.36102062
-0.11883514 -0.11175020 0.74864980
-0.55505119 -0.11354695 -0.21900201
-0.23724666 0.29785916 -0.47943020
-0.01428371 0.01224103 0.85625009
-0.46981289 0.26283018 0.12169046
0.28990282 0.11715975 -0.76969273
0.24858984 0.25703730 0.49928379
-0.11126487 -0.38633463 0.10775520
-0.50740080 0.25347697 0.15264987
0.11703316 0.29292679 0.48677022
-0.16311366 -0.03675854 -0.86743243
0.01269447 -0.24744254 -0.66249784
-0.01530035 0.13260628 0.81996103
0.00821608 -0.00026906 -0.85208443
0.19327705 -0.06286030 -0.72883847
-0.42675435 -0.17659650 0.54532908
-0.14851944 -0.15595240 -0.68812472
0.21137476 0.04012523 0.85229122
0.00381041 -0.00128701 -0.85014878
-0.43781451 0.20564782 -0.42397333
0.52199673 -0.15491277 -0.39129725
-0.16874319 -0.05664002 0.85746515
0.21118224 0.00531148 -0.81025542
0.05955568 0.00862291 0.86432460
-0.17378702 -0.21842499 0.58044868
-0.27551624 -0.06735075 0.82789756
0.43232751 0.04340647 -0.68001746
-0.01257287 -0.20728067 0.68033072
0.11159026 -0.08885517 -0.84516290
-0.56731080 0.00485620 -0.40291041
-0.07687818 0.00598015 0.82056315
0.01361426 0.01142177 0.84888651
0.01801903 -0.05796000 0.86092339
-0.28158346 0.30061412 -0.26939921
0.27200090 -0.14903346 -0.68591219
-0.31219220 0.18502998 0.61906471
-0.29161073 -0.08142166 -0.81812611
-0.01207681 0.06996917 0.85547154
0.19035435 0.18171744 -0.64446435
0.02524104 -0.08319585 -0.84964949
-0.42582627 -0.00006375 -0.63594228
-0.52164574 -0.06710310 -0.50848734
0.28679187 -0.03564568 -0.69722077
0.07023229 -0.00908985 0.81607892
0.24180324 -0.17815161 0.71638221
0.08309713 0.12306916 0.72751620
-0.50201515 -0.20227268 -0.01333172
0.34109549 -0.18969264 -0.58647461
-0.42614306 0.24665118 -0.34411991
0.24215772 0.10954330 -0.79273869
0.12158857 -0.18125519 0.80973236
-0.46680718 0.03542028 -0.56972840
-0.37026830 -0.09122422 0.75212093
0.47776516 -0.03029155 0.54855302
-0.40911544 -0.19090312 -0.52331332
-0.03841134 0.01032180 -0.83565305
-0.40954265 0.25769698 -0.28650982
-0.08799228 0.03067609 0.80782941
0.44269324 0.23786592 -0.29847019
0.02552173 -0.04884689 0.86161695
0.12423190 -0.11326316 -0.84047419
-0.11599170 0.30632999 -0.53140878
-0.11792320 0.19942191 0.78276473
0.12952079 -0.08228684 0.81543366
0.36721214 0.03987618 0.74481876
-0.05005651 -0.00345281 -0.84361496
-0.66106954 0.08699640 0.11916914
-0.14211740 -0.21135806 -0.61598154
0.31211254 0.29369402 -0.36434234
-0.32793642 -0.34190493 -0.20067245
-0.20872662 0.11947164 0.75583003
-0.07448904 -0.05064945 -0.84731438
0.52274929 0.08506682 0.50795095
-0.63998305 0.09214061 -0.22039745
-0.52974561 -0.04826838 -0.51075192
0.13181175 0.32940295 -0.38671407
0.07071201 0.05457851 -0.82444393
0.10712837 0.14707102 0.70435491
-0.34511460 0.29794783 -0.02498129
0.49131031 0.19963772 0.24137310
0.65396037 -0.13801043 0.06473154
-0.19118597 0.07679617 0.74562690
0.09808309 -0.14868385 0.83205955
0.48144006 -0.04294472 0.53538496
0.46731993 0.15289642 0.49228599
-0.37130517 -0.31988905 0.19406980
0.41641955 -0.26321863 -0.28394761
-0.38657588 -0.26213887 -0.35607511
-0.60274562 0.16497892 0.24348265
-0.59770612 0.16173245 0.25422359
0.42375461 0.05540808 0.69123499
-0.58264884 -0.07553603 -0.21966273
0.54718544 -0.01859741 0.45545426
0.06636548 -0.01499229 0.82817421
0.58028977 0.09219492 0.20658117
-0.18915093 -0.38477243 0.07567803
-0.14377133 0.25563750 0.68805592
0.53882007 -0.22379245 -0.19670987
0.57969816 0.09767966 -0.15886695
0.46106801 -0.11707552 -0.49092521
0.29716212 -0.27683106 -0.37693793
0.42418311 0.22663202 -0.39889602
0.51006358 0.12231585 0.46738948
0.21353116 -0.21002289 -0.70316383
0.37845943 0.32530387 -0.13820281
-0.59255231 -0.08076027 0.16862333
0.52838587 -0.18572301 -0.34240592
-0.52490230 -0.13772795 0.35984171
-0.54323995 0.23929073 -0.03419039
-0.42946839 0.09312723 -0.54459473
0.22546438 0.05385408 -0.85377775
0.14502515 -0.02072312 -0.79491505
-0.22693554 0.32630356 -0.00413969
0.25649811 0.38079126 -0.06248653
-0.09220169 0.22804977 -0.72620235
0.52055537 -0.06559889 0.46174019
0.27575919 0.10451552 -0.78180002
0.43366246 -0.27591510 0.02435811
-0.05110623 -0.12370475 0.74385904
0.07537467 -0.08148614 0.87063037
0.29357708 -0.02503729 -0.71073045
0.07048534 -0.05618287 0.86123991
0.45851953 -0.09441471 0.51887800
0.39377193 0.23664181 0.42461582
0.09690213 -0.20833724 0.77702768
-0.53063095 -0.09346521 0.47791097
-0.47439922 -0.07684360 -0.61937698
0.02213095 -0.00798122 0.84617557
0.31049491 -0.03215587 -0.68113765
-0.07372256 -0.15042001 -0.71166046
-0.60165445 0.03727022 0.33586097
-0.27567281 0.04048542 0.69917152
-0.47350069 0.23733006 -0.26896899
-0.15740059 0.11271011 0.80912022
-0.46271733 0.21809709 0.35558195
0.07473631 0.03054043 -0.85984560
0.01056762 0.00214600 -0.85163721
0.08749221 -0.25884340 -0.67314133
-0.49903855 0.10462924 0.46456897
0.48194282 -0.13156231 -0.47413734
-0.39991101 -0.19916357 -0.51647550
0.58279284 0.07094613 0.28112635
0.31648034 0.28913361 -0.37075101
0.00391875 0.01665575 0.84681455
0.37601841 -0.03523017 0.64886182
0.13348898 0.38870209 -0.07747505
-0.32984717 -0.01603127 0.77191457
0.27440059 -0.07101580 0.67345749
0.30493795 -0.03259525 -0.70575899
0.00516468 0.01463255 -0.84804786
0.57221467 0.10690977 -0.14209939
0.17719973 0.14193456 -0.70143810
0.00867493 0.00961486 -0.84992197
0.08744098 0.14437881 0.71092841
-0.54467358 -0.14347922 0.12474897
0.53832345 -0.18936038 0.29499375
-0.16710734 -0.02581253 0.85698488
-0.31412065 -0.19167229 -0.60869213
0.20391155 0.37613520 0.19026300
0.18615353 -0.33382483 0.07188038
-0.21785391 -0.12155105 0.76872230
0.23458586 -0.16167128 0.72922668
0.17250959 -0.03169774 -0.77010505
-0.05229915 0.04369768 0.87278583
0.38498018 0.14203308 0.66947478
0.06906320 0.29354424 0.51567792
-0.64908877 0.14918216 0.02667296
0.62759728 -0.12757756 -0.24361766
-0.47482553 0.26250235 0.01948046
0.02807712 -0.09699527 0.84563433
-0.46341490 -0.07492815 0.64621098
0.11034950 0.14972281 -0.68895268
-0.25293634 0.30083163 -0.34890750
-0.33222414 -0.27636678 -0.38472194
-0.25965855 -0.29155876 -0.43635848
-0.38075209 0.09784464 -0.58427391
0.00704943 0.06376675 0.82289123
-0.10561612 -0.35286543 0.36083003
0.33553488 0.35256130 -0.11068379
0.52424215 -0.13209710 0.42317913
0.11082077 0.15512289 -0.68853361
0.48577679 0.23395703 0.04156308
-0.42909705 -0.00283986 -0.64086722
-0.29869967 -0.02488659 -0.79597455
-0.63629725 -0.01075086 -0.00702717
-0.15889770 0.03883094 -0.76323128
0.63439099 -0.01337562 -0.23124853
-0.28446270 0.01664728 -0.73799199
-0.56681991 0.05169306 0.41411995
-0.61342776 0.19947588 0.00184657
0.55221450 0.14459714 -0.06428828
-0.18884682 -0.07388950 0.84463339
0.08883261 0.37388327 0.27012598
-0.10279459 -0.06829143 -0.80429083
0.54752770 0.11223521 -0.32607864
0.33176706 -0.02180470 0.69624744
-0.55966962 0.06706428 0.41349552
0.27803421 -0.12893293 0.66925515
-0.04861912 0.00437174 0.83922056
0.14531126 0.03086320 -0.86393987
0.26079953 -0.31566522 0.13018422
-0.32320158 -0.25131131 0.48200380
0.11155923 -0.33812659 -0.24386437
-0.01484542 0.00495503 0.84969732
-0.32030850 -0.21571605 0.53623790
0.32527352 -0.24589660 -0.51096195
-0.40019663 -0.25616864 -0.35316085
-0.02590053 0.01947905 -0.84858048
-0.32260069 -0.31094204 -0.31931893
-0.32876092 -0.35993108 0.06051911
0.41256657 -0.07030462 -0.58661122
-0.13660015 0.08128675 -0.80958897
-0.43187404 0.12491165 -0.52360011
0.03095131 -0.04339393 -0.87357735
-0.41855533 -0.00366452 -0.66476580
-0.01989158 -0.15103513 -0.75974152
-0.20088725 0.03064466 0.74667720
0.10486961 0.26381582 -0.54922759
-0.01935436 -0.37615064 0.16137237
0.44845002 0.27933590 -0.15218772
0.18560523 0.32198184 -0.39904160
-0.04198982 -0.02582061 -0.84552038
0.00191262 -0.02055456 -0.85211884
0.40922446 -0.18368168 0.51688117
-0.07595745 0.28678732 -0.58780627
0.35806155 0.17982620 -0.61105793
0.56121869 -0.09969374 0.40504561
0.12767649 0.11916363 0.75153698
0.02845179 0.04137218 0.81902314
-0.11574093 0.25065367 -0.69012955
-0.61253062 -0.06151435 0.02570176
0.01988687 -0.01380426 -0.84588584
0.03835576 -0.37842197 0.09312257
-0.00946550 -0.02587003 -0.84037705
0.29801102 0.33662331 0.24093148
-0.25642866 0.18787123 -0.70034188
-0.16635601 0.02095340 0.79711980
0.40020112 0.30877509 -0.15519663
-0.06664812 0.23215482 -0.71846372
-0.05813743 0.08690170 -0.86622128
0.23230810 0.14113381 -0.72261369
-0.06638174 -0.01052436 0.85743722
-0.17736804 -0.34548365 0.33773427
0.08747162 0.03327131 0.87057804
-0.20855674 0.01189368 0.77820815
0.11034013 -0.31983076 -0.44447077
-0.01293888 -0.29093589 -0.52618238
0.18513462 -0.24718418 -0.69133117
-0.23871098 0.04714069 -0.71787845
0.21183275 -0.26714477 -0.61464546
0.02151934 0.21637506 -0.67966640
-0.05847812 0.04489814 0.85548925
0.18080232 0.21536884 0.59046829
-0.61127402 0.07893278 -0.32574094
-0.20815770 0.09644560 -0.74280183
-0.00294426 0.01030325 0.85050900
0.00870717 -0.37279659 -0.03428796
-0.21411599 0.29364463 -0.45569308
-0.01273932 0.03826025 0.85712089
0.41863932 0.26631078 0.25507235
-0.18134069 0.03621296 -0.74903954
-0.18136859 0.31695450 -0.43457550
-0.30512382 0.19391265 0.62391209
0.02094292 0.16564879 -0.74870512
0.04734628 -0.33923155 0.38957292
0.23699490 -0.06468241 -0.70252056
-0.51825016 0.00400676 0.49815788
-0.39857276 -0.29737187 -0.24182273
0.41249794 -0.25472315 0.26555015
0.49233830 -0.00442425 0.55255356
-0.17339837 -0.08869092 -0.80814632
0.26766619 -0.12707087 0.68864393
0.13748577 -0.05327776 0.79454766
0.14307429 -0.31983553 0.39971029
-0.46661758 0.07293533 -0.52314406
0.34704804 0.11382338 -0.74962393
0.00558703 0.00170601 -0.84944214
-0.50864323 0.04460158 0.50084663
-0.62695815 0.01053992 0.25097583
-0.21783233 0.08390377 0.72824886
-0.53330505 -0.14784271 -0.18909613
-0.00856608 0.00036224 -0.85696633
0.27545776 -0.27656433 -0.51100755
0.47031660 0.21858023 -0.24114496
0.09236877 0.36605990 0.28612218
0.05433924 -0.09817196 -0.86557352
0.35228095 -0.29233674 0.00676875
0.26285233 0.00007698 0.76471579
0.41343771 -0.24409092 0.35166690
0.10239012 -0.05104835 0.80980393
-0.16725350 0.22401886 0.73569613
-0.02885250 0.01626953 0.83695225
-0.07153772 0.36237786 0.11754532
-0.45466630 -0.20868376 -0.34374068
0.54214155 -0.13254518 0.40474423
-0.33707587 0.28898513 0.20309335
-0.08453556 -0.01476718 -0.86385163
-0.13685482 0.26193891 -0.64059151
0.33436485 0.35220113 -0.12686007
0.17009025 0.26965586 0.51058412
0.20978504 0.04313896 -0.86149894
0.39160599 -0.06811136 0.59657714
-0.45128736 0.18692170 0.44478865
0.09212599 -0.09468520 -0.86070042
-0.28995963 -0.37071709 -0.08275626
0.15967573 0.23133425 -0.55515207
0.29824276 0.34348182 -0.25143822
0.22308093 -0.30713816 -0.38838197
-0.04473390 0.30991259 0.50191210
0.35339460 -0.13057087 0.58928010
0.34893462 0.25096301 0.44905849
-0.11832499 -0.14902244 0.69460167
0.10785984 -0.13828164 -0.84949386
0.04426880 0.29350595 0.53423623
-0.09932339 0.35164416 -0.15346520
0.36669747 -0.04957794 -0.63466901
-0.03363090 0.25133617 -0.67537826
-0.61481142 0.16908487 0.17647492
-0.63697751 0.16873165 0.06401345
0.00498189 0.00176482 -0.85186930
0.09020062 -0.31319617 -0.44649627
0.04826942 -0.21773686 -0.73245394
-0.15187666 0.07484354 -0.79526278
0.21996503 -0.21914218 -0.70872497
0.07721554 0.19378227 0.67274561
0.63437338 0.00785207 -0.16062839
-0.19902258 -0.05914727 0.85141868
0.57064409 -0.01614145 -0.39814135
0.09184651 0.00832098 -0.87693417
0.17695287 0.38999746 -0.03876110
-0.60643122 -0.04521168 0.17594134
0.02749644 -0.04092609 0.86362302
0.07081313 0.02294973 -0.86215597
-0.15918730 0.06776207 0.78394359
0.00017389 -0.05057998 0.84164397
-0.31584511 0.18917320 0.61179881
0.04502487 0.06489923 0.78703520
0.23012018 0.38198110 0.12521456
-0.57157507 0.21919641 -0.04034378
-0.52871611 0.04785187 0.46529976
0.05751747 -0.04857291 0.85145446
-0.13516947 -0.09766089 0.78027614
-0.22897136 -0.33968059 0.30909716
0.11558649 -0.00106931 0.82012932
-0.44316118 0.15685062 -0.48901695
-0.31034350 0.11977810 0.63762170
0.45725776 -0.14233237 0.48877773
0.01716315 0.36172496 0.27581036
-0.08207520 -0.37264280 0.22905480
-0.00027812 0.00233448 0.85014244
0.19438752 0.07690903 0.82571538
-0.25049821 0.03265438 -0.72735839
0.00245769 0.00000600 0.84601861
0.27930360 0.37848910 -0.02578788
-0.66825587 0.08741959 0.02745456
-0.13145224 0.32242585 0.42418515
0.17175724 -0.33434108 0.16034370
0.32429276 -0.12595010 -0.62364689
0.10995568 -0.18070787 -0.80544852
-0.05287520 0.28268089 0.59145380
-0.08432486 0.31904353 0.46088384
-0.02238497 0.26248986 0.61945780
0.43416244 0.29371127 0.05804282
0.50509226 -0.10995820 -0.45752949
-0.33454102 0.13779948 0.61297553
0.08962776 0.32603181 0.42557049
0.07885266 -0.07685205 -0.85274367
-0.07702310 0.03551544 0.81743714
0.60030607 0.07534507 0.09914645
0.26520911 0.24384690 -0.51264977
-0.18372364 -0.11766721 0.73703279
0.02671386 -0.05172600 0.86344462
0.05822608 0.14935652 0.71567677
0.14188084 -0.04444497 -0.79323137
0.00989067 -0.00632046 0.85205336
0.22315372 -0.18450682 0.73458306
0.00852642 0.03658897 0.83403524
0.22911176 0.03967569 0.85317565
0.40410734 -0.26593519 -0.31653898
-0.16283217 0.26829906 0.65592454
-0.46801426 -0.26215580 -0.17866006
0.03816069 -0.35480087 -0.23805628
0.20507226 0.12748660 -0.75351261
0.00016456 -0.00546701 0.85420179
0.24656749 -0.05475490 -0.70343593
-0.08873568 -0.34881460 -0.31870563
-0.27526068 0.06150983 0.68256787
0.30150155 -0.17353916 -0.64108726
-0.29411906 -0.03946349 -0.79443529
-0.01577944 -0.26787134 0.58320900
0.07224779 -0.09403358 -0.86127510
-0.00496230 -0.37352672 0.11874198
-0.14163857 0.33619909 -0.25628838
0.01561832 0.00712058 -0.85855269
0.03906424 0.34252665 0.35391352
-0.36491958 -0.01188194 -0.71581152
-0.54276365 -0.00900324 0.46048758
-0.35892823 -0.12474409 -0.73654815
-0.49951903 0.22961427 -0.26688105
0.10173974 -0.24869015 0.69894609
0.55834787 -0.19945099 0.24518542
0.00417975 0.31800751 0.46517125
-0.01898011 -0.09291577 0.80770485
-0.02692086 -0.03767844 0.83039946
-0.56405070 -0.04637381 0.38862799
0.01477004 0.01713873 0.83504275
0.10572763 -0.19397616 0.78648154
0.46292044 -0.07365274 -0.53784595
-0.09319730 -0.29283866 -0.50295330
0.39786696 -0.12911640 -0.55790913
0.53826514 -0.03041011 0.45716727
-0.13773798 0.10877387 -0.83119002
-0.40752100 -0.27578221 -0.25172045
-0.23142558 0.02505290 0.74292018
0.27091768 -0.01688918 0.74169626
0.44973731 0.17841774 -0.48631186
-0.26668783 0.09436996 0.67236764
0.46183328 -0.26790508 -0.01876173
0.00484234 0.01460198 -0.85055124
-0.00191855 -0.00671333 0.85164154
-0.02811147 0.01525860 0.84822074
0.00962040 0.00375413 -0.84725496
0.46521518 -0.24811429 -0.22489161
-0.08179543 0.14857890 0.84267511
0.02766214 -0.12860455 -0.83762063
-0.12665611 0.13104125 -0.83615403
-0.48364050 -0.22175728 -0.09044213
-0.33962184 -0.29614434 -0.32297448
0.24352279 -0.26485579 0.57843275
0.09698256 0.01218336 0.85324693
0.12130905 0.36713113 -0.25841525
-0.12328458 -0.28883415 0.50655466
-0.51477552 -0.12687682 -0.41707927
-0.31351990 0.00963705 -0.73677476
0.03501379 0.00017767 0.86447908
-0.34010120 0.28711328 -0.25248529
0.29281861 -0.19592971 0.64294052
0.26143731 0.03077560 -0.82689590
-0.36212389 0.16052194 0.57580725
0.59337569 -0.12678686 -0.29994716
0.56684575 0.10418903 -0.12880028
-0.01209398 -0.36186482 0.26999009
-0.02581289 0.32474034 -0.44627431
0.32998115 -0.21391241 -0.55770994
-0.02264952 -0.36628100 -0.18431905
0.33305854 -0.16771667 -0.60564923
0.00514559 0.02246313 -0.84710258
-0.59203894 -0.07116807 0.20181160
0.11414350 -0.34904380 -0.03823117
0.00380979 0.01506128 0.84491751
0.04422469 0.21643835 -0.66035556
0.60926669 0.06219750 -0.05767083
0.62226874 -0.09636239 0.24993557
-0.04339020 -0.09846820 0.76551368
-0.14847354 -0.08868832 -0.78356396
-0.02502852 -0.36536787 0.27508808
-0.54456329 -0.05998673 -0.46829986
-0.27332959 0.02292689 0.72015695
-0.07411154 0.00339481 -0.82144433
-0.21363145 -0.14803733 0.69069775
0.11079948 0.20073734 0.64417177
0.20697768 -0.09866231 -0.75460028
0.07345776 -0.10407561 -0.87277206
-0.25001812 0.19872550 0.69380811
-0.52802694 -0.17391580 0.06633029
0.30520456 0.21822286 -0.56276680
0.22757361 -0.01927540 -0.75019509
0.50597809 -0.20218213 0.31912816
0.61437586 -0.19194942 -0.04983261
-0.24491216 0.25094516 -0.61184150
0.22259798 0.24130453 -0.54521297
0.09089537 0.21786584 -0.62002673
0.50104179 0.19260272 -0.17893038
0.15896913 0.08279878 0.81088739
0.19240829 0.05080164 -0.85647629
0.26089537 -0.00809868 -0.76006753
0.37257758 0.10562491 -0.73821352
0.13076440 0.08609947 0.79777783
0.19716543 -0.21014593 0.72437261
-0.43302522 -0.14446817 -0.60890170
0.00850526 -0.02562893 0.85084446
-0.02878129 -0.01608493 -0.84724688
0.45142816 -0.22958240 0.31803656
-0.32351753 -0.22487010 -0.52713590
-0.22670231 -0.01942708 -0.82675485
-0.15084527 -0.35830962 0.28446480
-0.51388288 0.10531077 0.45192226
-0.33896003 0.28667906 -0.27371706
-0.63540752 0.07969197 -0.21971368
0.31489953 0.33146283 0.25327600
0.17115210 -0.33648578 -0.25717816
-0.00924562 0.07532805 -0.83674503
0.38878032 0.33176764 0.09164287
0.00889694 0.21484812 0.68791835
0.32153659 -0.29327790 0.31010269
-0.28633503 0.30386469 0.26856634
-0.09641091 -0.12756710 0.71937533
0.19291262 -0.15319909 0.77214059
0.47942273 0.15149246 -0.46515082
0.05050846 -0.33064039 0.40479494
-0.02709166 0.05148848 -0.86885194
0.09498308 0.24865107 0.58220188
-0.07225599 -0.09884934 0.75482732
0.35780943 -0.13648940 -0.58631399
-0.06408955 0.14261754 -0.84654543
-0.47304749 -0.13447169 0.56271803
-0.09749302 0.24117266 0.73083650
-0.36390853 -0.07716787 0.76012748
-0.45634931 -0.26185607 -0.04990903
0.36698561 0.05180814 0.83001164
0.08322779 0.06857638 0.70634389
0.10741257 0.05361559 0.79494469
0.08512856 0.13367879 0.65524509
0.40058628 0.08237057 0.83500877
0.07768311 0.17052448 1.02716055
0.20750113 0.04641308 0.85323301
0.08788549 0.15761569 0.96666444
0.18572179 -0.00119796 0.63823232
0.22841618 0.14757554 1.01377191
0.04863686 0.11048649 0.99744907
0.04885216 0.10264471 0.86709392
0.15419072 0.02806324 0.75851836
0.15068463 0.09886310 0.72211189
0.14696523 0.10211432 0.89173271
0.16106120 0.08518229 0.84066686
0.02787537 0.11927710 0.81879741
0.18464406 0.13718238 0.47196471
0.01574747 0.10878585 0.82689826
0.19110983 0.08056018 0.93605334
0.25595449 0.11641423 0.77230843
0.01478031 0.12797439 1.04306560
0.23485359 0.06903413 0.94184515
0.26180741 0.16657079 0.66359973
0.15837994 0.12950265 0.83603912
0.09745193 0.12249796 0.92729986
0.18201439 0.11073205 0.76846733
0.29231243 0.06492895 0.71637506
0.18449235 0.13714671 0.55259917
0.07123765 0.01807095 0.81985667
0.08252206 0.08758057 0.93603557
0.13216658 0.11368467 0.76364190
0.23613039 0.11636049 0.68806842
0.16700110 0.13986624 0.88904748
0.07614441 0.12012130 0.62630157
0.28902182 0.14459700 0.87337311
0.19409600 0.08785915 0.93907196
0.15404675 0.11650598 0.97886942
0.13146580 0.07670805 0.61472410
0.09525187 0.03271155 0.94840787
0.32454482 0.15949142 0.52889411
0.23492282 0.15364619 0.74172735
0.19288199 0.02573285 0.87522823
0.09545370 0.10674060 0.54438744
0.22628093 0.13705068 0.67489308
0.09101391 0.01304997 0.77193985
0.13776262 0.04099538 0.90686287
0.13627622 0.05798415 0.72295572
0.25959802 0.12149789 0.79323337
0.22961519 0.06007494 0.83391697
0.18852864 0.08331277 0.90061770
0.11911583 0.12198875 0.92054955
-0.04662251 0.15202210 0.26718552
0.13389896 0.14458341 0.76414826
0.06723082 0.05700281 1.00564490
0.02676460 0.13708667 0.80976003
0.08193537 0.07192960 0.64263569
0.25131485 0.12917779 0.50829178
0.14889731 0.06943832 1.04952393
0.07197276 0.16764143 0.80626294
0.08681497 0.07119187 0.67517329
0.07602401 0.10434357 0.60666971
0.00427502 0.08597978 0.50346487
0.11762707 0.07089458 0.66320240
0.34720464 0.10525727 0.86539521
0.03762562 0.07134531 0.85905764
0.10162714 0.13627007 0.60224813
0.15608758 0.08052784 0.85447836
0.12609220 0.08648990 0.77901402
0.12735911 0.12398771 0.85790250
0.17185458 0.07905925 0.96230787
0.16755090 0.08204171 0.83236874
0.31241272 0.04753499 0.96105726
0.03029610 0.11339366 1.09646257
0.22384683 0.10557662 0.72204507
0.17719008 0.08993732 0.67946929
0.16143296 0.10159423 0.68202393
0.11115651 0.04761225 0.89343937
0.22877454 0.10712630 0.99743960
0.19247301 0.10910745 0.87714012
0.17651084 0.07773222 1.21370437
0.14761575 0.06856686 0.89740836
0.19998785 0.04667049 1.01957556
0.16972610 0.05595842 1.03800670
0.23920384 0.04338840 1.14115428
0.22835765 0.10366740 1.10248520
0.19004523 0.09651959 0.70084118
0.22784082 0.12099892 0.82261935
0.11148153 0.10810834 0.80722439
0.07796900 0.03829655 0.91531851
-0.02828717 0.11340023 0.73458882
0.28386105 0.07677989 0.94573823
0.14412848 0.10164835 0.95491071
0.13557146 0.14496055 0.64363115
0.20716435 0.13913806 0.93816225
0.32906299 0.06890213 0.56785219
0.10239781 0.12964482 0.91553337
0.18966761 0.05878002 0.95684754
0.08011051 0.14825267 1.33279303
0.21039283 0.11907956 0.72775873
0.03772457 0.07943799 0.61933623
0.06692209 0.16676346 0.86918128
0.21604278 0.09086905 0.79206669
0.26479922 0.09589100 0.91158141
0.16143116 0.08529588 0.55733725
0.02095037 0.08735924 0.83330444
0.07851927 0.09621822 0.83203531
0.01041241 0.06032083 0.89133541
0.20206325 0.04949037 0.84555077
0.26208924 0.12730139 0.80079475
0.13766057 0.07551068 0.90591042
0.19721778 0.12522560 0.83757300
0.24302130 0.10215448 0.95963079
0.24996575 0.07352110 0.49778246
0.29952935 0.11297996 0.51395374
0.11967017 0.13427043 0.76901667
0.13339527 0.15785609 0.63235617
0.11523702 0.10830565 0.88740555
0.22214797 0.13627572 0.85640995
0.22057928 0.08501329 0.82770857
-0.18023704 0.11086289 0.95420833
-0.13505807 0.10325263 0.67676674
-0.17940237 0.09861864 0.86145380
0.00337928 0.08299838 0.89736200
-0.09854346 0.10679456 1.24018004
-0.20800103 0.11043219 0.67552323
-0.20746539 0.11094247 0.97430962
-0.15678920 0.14499145 0.80940538
-0.19661646 0.20994909 0.88566681
-0.24065130 0.07426592 0.65568208
-0.10992601 0.08492758 0.84370897
-0.18162238 0.12788529 0.66133080
-0.26356100 0.11347107 0.92784230
-0.15177645 0.06572388 0.93856418
-0.23540317 0.08068843 0.65204984
-0.06989887 0.12111750 0.92669070
-0.07959136 0.21024872 0.51547184
-0.23981972 0.07138287 0.66711556
-0.26552531 0.09175261 0.60258389
-0.15135203 0.10334909 0.90583227
-0.14224660 0.12527563 0.75145389
-0.00354924 0.11474597 0.48728410
-0.25867620 0.03002804 0.81807574
-0.19060910 0.08166857 1.18288453
-0.13420322 0.13272926 0.64963815
-0.26266389 0.10727565 0.85422521
-0.33006801 0.09235888 0.82212212
-0.19708564 0.06935512 0.73302364
-0.19338971 0.10628239 0.92211658
-0.09547110 0.09314135 0.73950115
-0.16254400 0.12712989 0.74951658
-0.12475215 0.14526096 1.04141574
-0.03398233 0.06530876 0.81310179
-0.17731324 0.10068041 0.70458822
-0.29650565 0.10206047 0.67425042
-0.17035306 0.07523728 0.62657982
-0.16920764 0.09997728 0.92088689
-0.01150280 0.11126834 0.90888838
-0.27192592 0.05163222 1.10731372
-0.25607102 0.05755215 0.80516299
-0.18854444 0.06392928 0.76577981
-0.08013443 0.06873722 0.56808157
-0.10344773 0.12370000 0.70792466
-0.30530298 0.06947038 0.80756616
-0.08465471 0.05631581 0.80633101
-0.12587540 0.00353357 1.00476894
-0.27662853 0.10669662 0.86593455
-0.09230690 0.12543566 0.38996189
-0.23520081 0.10400927 0.78140318
-0.14576588 0.12463897 0.93565183
-0.19165773 0.02854950 0.73442902
-0.13944547 0.05497524 0.93255335
-0.10157950 0.10771032 0.27732404
-0.28125218 0.17385944 0.71917598
-0.34611945 0.14829552 0.82698238
-0.08920942 0.11115958 0.89856091
-0.15005176 0.13195079 1.23166036
-0.10165255 0.03359860 0.90386780
-0.10120916 0.14963942 0.75349239
-0.09283794 0.13614422 1.28302149
-0.24185047 0.08384947 0.76678837
-0.21860857 0.06758826 0.32278541
-0.20205650 0.11537971 0.73200119
-0.03201138 0.09836123 1.05697474
-0.16442819 0.12442607 0.87039274
-0.06501425 0.10240710 0.90795723
-0.15812731 0.09027759 0.89554192
-0.00837603 0.09372225 0.89856647
-0.07484842 0.14794423 0.82472369
-0.36858821 0.12414200 0.41321960
-0.06840926 0.10383493 0.99942204
-0.25061634 0.03919842 0.87140422
-0.17809429 0.07684883 0.83619333
0.03800354 0.13262803 1.01019691
-0.12611989 0.16882346 0.78805273
-0.34676372 0.10016604 0.96472270
-0.25705396 0.09099690 0.70208941
-0.06025760 0.13057622 0.94209244
-0.12793133 0.09829264 0.86000169
-0.26466083 0.01381196 0.84748165
-0.15339827 0.15361230 1.10044366
-0.05551339 0.05392928 0.75185683
-0.14364446 0.20105244 1.09349419
-0.08830425 0.08084017 0.65811214
-0.11138838 0.06047999 0.77719405
-0.19095234 0.16821621 0.75218118
-0.37357185 0.12926842 0.69499749
-0.17969195 0.09817329 0.76885324
-0.12234922 0.04148955 0.73140877
-0.12652059 0.07392767 0.52656854
-0.12711531 0.14267431 0.80785674
-0.32929897 0.13010476 0.52350976
-0.15176246 0.06758559 0.60957649
-0.21426259 0.09159197 0.70579637
-0.13153698 0.08062659 0.99111716
-0.15692120 0.07128063 0.65656933
-0.30976906 0.11549070 0.76628766
-0.37134044 0.07641656 0.65337619
-0.05311123 0.03269813 0.55731167
-0.09190214 0.14635586 0.68960858
-0.23364959 0.12451079 0.39541526
-0.33122490 0.08765230 1.09893514
-0.21293948 0.10979377 1.02701291
-0.00760057 0.08271048 0.81924822
-0.03438241 0.04314848 1.00925663
-0.25887098 0.09828039 0.77296273
-0.25774034 0.06379441 0.86966920
-0.09580938 0.10007150 0.83741705
-0.12948391 0.05698727 0.95507519
-0.11688267 0.19754878 0.75115136
-0.21134760 0.13260160 0.97550999
-0.22209805 0.09366470 0.91811363
-0.24611682 0.07846108 0.84056895
-0.10233341 0.07322786 0.49349572
-0.32869491 0.05415168 0.58218104
-0.19257277 0.05220538 0.69663418
-0.23571261 0.08385227 1.06595034
-0.12345542 0.09970598 0.74033011
-0.20783485 0.12110301 0.92989799
-0.25250670 0.10059246 0.45661275
