ply
format ascii 1.0
element vertex 956
property float x
property float y
property float z
end_header
-0.40660717 1.18855100 -0.01957960
0.17643646 0.76781225 0.01940096
-1.99283959 -0.31234465 0.64975795
-2.00079386 0.77854483 0.47514999
-2.00988506 1.00424377 0.13689281
-2.01030681 0.72213360 1.73842108
-2.00195848 1.48730639 1.66284785
-2.01402741 1.11228722 0.50198440
-1.98922937 1.39994509 1.67021387
-1.99641840 0.10311752 0.72373978
-2.00381400 -1.17219824 1.06314134
-2.00665789 0.60163785 0.72719385
-1.99383129 -0.28191132 1.03196050
-2.00668182 -1.41664771 1.72415861
-2.00610936 -0.63028288 0.25360355
-2.00459568 -1.48353481 1.54240477
-1.99931548 1.08962213 0.17155189
-1.99627522 -1.04327609 0.80622402
-1.99284397 -0.94288748 1.32447805
-1.99373017 -1.32588076 0.98947680
-1.99999536 -0.35162530 0.83690367
-1.99387687 -0.22572865 0.27568653
-2.00402600 -0.83915554 0.11665386
-2.01092520 -1.15414327 1.76021068
-2.00402679 -0.66063956 0.55264597
-2.00483756 -1.11868101 1.35929557
-2.00379192 1.27242843 1.42155097
-2.00575625 0.33784749 1.46381925
-2.00276666 -0.28730930 1.54709524
-1.98970846 -0.03661760 0.47630984
-2.01035208 -1.24130125 1.52315288
-2.00772641 -1.47615095 1.31429430
-2.00474868 1.46457636 0.86763558
-1.99540555 -0.38627841 1.09049932
-2.00122968 0.91409348 0.43245359
-2.00434466 -0.74789571 1.09292043
-1.99569960 1.31963946 0.53719196
-1.99426166 -0.36973601 1.78799994
-2.00011256 -0.97133350 0.13854270
-2.00489732 0.26926572 0.04368058
-1.99837832 -0.95870031 1.11997653
-2.00139961 0.47853720 0.91876545
-2.00144608 -0.34875586 1.03715565
-2.00307440 0.43015726 1.44626768
-1.99445010 0.87825248 1.19664138
-1.99850072 1.18269775 1.50844546
-1.99378579 -1.10026198 1.72202299
-1.99198204 1.17522691 0.57766892
-1.99724612 -1.43944674 1.08715670
-2.00303886 -0.18474727 1.34921999
-1.99375804 0.07379929 0.13768278
-1.99720601 -0.76593774 1.58854276
-1.98437979 -1.38693091 1.32600540
-1.99813938 -0.62416948 0.81475165
-1.99581387 0.09301630 0.45014644
-1.99825746 0.45588133 1.24819599
-2.00059459 -1.24482156 0.67306874
-2.00155275 0.73313190 1.29894761
-1.99823454 0.13381003 1.39981460
-1.99687295 -1.17706532 0.21278028
-1.99307367 0.47246790 1.24800096
-1.99814690 0.94358057 0.32586638
-2.00277734 0.05031498 1.18949633
-2.00196112 -0.82890128 0.93047016
-2.00793762 0.41533507 0.38600912
-1.99003272 -0.37330977 0.38940986
-2.00324704 1.20882871 0.42623799
-1.99419536 -1.13749612 0.06327956
-1.99834069 -1.36513958 0.34485522
-1.99817761 0.32462553 0.03176977
-2.00070469 -0.63976823 0.10470040
-2.00472679 -0.28902369 0.08743813
-2.00581121 0.32262533 1.23916368
-1.98962921 0.69401265 0.40381812
-1.99931623 1.10550049 1.24251870
-1.99324839 -1.33004934 0.79338008
-1.99169056 0.80326948 0.55960907
-2.00246508 -0.35532368 1.13328689
-1.99745897 -1.33355736 1.74048307
-1.99972994 -0.97655697 0.04800960
-2.00694328 -1.48403105 0.71919787
-2.00111288 1.15276010 1.47557174
-1.99647496 1.23613739 0.96080817
-2.00299418 -0.15376130 0.69454976
-2.00194906 -1.36074577 1.63713826
-2.00104020 -0.01147172 0.81912138
-1.98733082 0.04550246 1.42947813
-2.01100429 -0.82658674 1.27782122
-1.99699014 0.63230922 1.52919501
-2.00152003 -1.47394920 0.30671198
-2.00384393 -0.08685944 1.53097270
-2.00166725 1.39535058 1.07076351
-1.99599574 -0.86359807 0.33225245
-1.99565286 0.41833186 0.37812446
-1.99888390 0.15926227 1.50266147
-1.99344355 -0.33054105 0.68124994
-1.99238700 -1.39157899 0.45735224
-1.99510174 0.59457438 0.64870424
-2.00327715 -1.02510325 0.19038192
-1.99703335 -1.21483987 1.18644018
-1.99700480 0.33786444 0.93333781
-2.00489379 0.00097934 0.27564633
-2.00941663 0.00181267 0.10788800
-2.01213665 1.27757538 0.10444960
-1.99821176 0.85845132 0.29910634
-2.00709069 1.27474805 0.07915995
-1.99372381 0.96236200 1.18194806
-1.99908669 -0.75079284 0.36435530
-1.99190328 -0.42696620 1.49112519
-1.99777678 1.08586965 0.31551368
-2.00639800 -0.43965588 0.42748449
-1.99725031 -1.13207146 1.16360890
-1.99597934 -0.46238693 0.40569128
-2.00328574 1.09799332 1.34697228
-2.00865256 0.82128345 0.07055260
-1.99939822 1.24539135 1.03452908
-1.99327467 1.19298663 0.97900285
-2.00244306 0.97546039 1.17991973
-1.98965239 0.89008084 1.24727715
-2.01274495 1.26289171 0.40587154
-1.99919123 -0.89369969 1.28257481
-1.99142364 0.00418440 1.07849011
-2.00534183 0.62562741 0.98537075
-2.00095521 0.86308034 0.57396124
-2.00241821 1.07697133 0.19381744
-2.00410261 0.40201193 1.60223851
-1.99853226 -0.74191762 0.58830241
-2.00777253 -0.58367466 1.01567468
-2.00066581 -0.26138455 0.19432671
-1.99690403 1.17386167 0.36841793
-2.00129056 0.10224003 1.07064881
-2.00600123 -1.37774447 0.17228219
-1.99381889 1.41506913 1.19612221
-1.99561846 -1.39930447 1.42955860
-2.00624712 0.02562843 0.13535923
-2.00776465 0.54225629 0.89883325
-2.00571155 -0.88524060 1.57986409
-1.99672836 -0.62586043 0.51220194
-1.99834656 -0.68167925 1.38142040
-1.99525950 0.61835601 1.62566223
-2.00195690 -0.81198234 1.41545627
-2.00554841 0.21913673 0.55562330
-1.99448692 -1.39363760 1.47410559
-2.00332069 -0.77678589 1.13713747
-2.00929955 1.48303089 1.46579284
-2.00341886 -0.04058619 1.22461447
-1.99394362 -0.07021729 1.34025529
-2.00429765 -1.09701436 0.80343179
-1.99511298 -0.49338847 0.82737944
-2.01398612 -0.14858204 0.25756911
-2.00335635 1.42946571 0.02788586
-2.00102813 -1.46978117 0.67219437
-1.98954476 0.36112905 0.32337581
-2.00701438 0.09958201 1.30098954
-1.99597404 -1.21781817 1.77196033
-1.99365841 -0.48989806 1.15634774
-2.00432894 -1.16784043 1.27707550
-2.00224114 1.02136904 0.18951326
-1.99915023 -1.12241054 0.50588535
-2.00888891 -1.46419255 1.77489233
-2.00273062 0.29515222 1.09366101
-1.99234333 1.37688651 1.49765266
-1.99686407 0.94272879 0.61110427
-2.00094051 -0.49540982 0.52512833
-1.99932157 -0.45991271 0.66511577
-1.99651457 -1.07998893 0.64070615
-1.99536554 -0.15975889 0.55682521
-2.00333848 -1.00395910 0.67213872
-1.99079167 -0.05727668 1.29731110
-1.99210191 0.63371328 0.36485106
-1.99593645 -1.39003381 0.54683914
-2.00505776 -1.02859109 0.71241926
-2.00612134 1.43803836 0.32592847
-2.00195962 -0.54337817 1.30520577
-1.99963541 0.02754835 0.07907066
-2.01061095 -1.01492995 1.68344920
-1.99703184 -1.19050502 1.14316702
-1.99227523 0.87697695 0.47779031
-1.99654116 0.67523401 0.30581132
-2.00405632 -0.64574918 0.56127966
-2.00476642 1.48930497 0.38623013
-1.99820089 -1.11237761 1.66624459
-2.00091982 -1.01420792 1.58270386
-1.99734175 0.45136988 1.03835070
-1.99638967 0.75401613 1.30679812
-1.99344866 -1.16842143 1.79903900
-2.00679274 1.32566918 1.61386553
-1.99867029 0.36686740 0.94102440
-2.00218085 0.10883575 0.02688650
-2.00059181 -0.00159149 1.12278522
-1.99481355 0.47611863 0.59785104
-1.99416124 -0.08615295 1.14535909
-1.99160934 -0.21508347 1.73184336
-2.00066010 -1.43016156 1.24254037
-2.00151727 -0.26206471 1.51104771
-2.01040853 -0.98095377 0.02488845
-1.99196159 -0.33575295 1.32491539
-2.00193139 1.41518320 1.59057698
-1.99696462 -0.04777616 1.46307111
-1.99592602 -1.28900863 1.03009023
-2.00747189 1.27289524 0.71349327
-2.00554008 1.38030189 0.39723317
-1.99071788 -1.18309857 0.94457220
-1.99825739 1.22174062 0.56030259
-2.00348351 0.90048096 0.30455508
-2.00075808 0.73671119 1.00264849
-1.99348258 -0.97494907 1.29255705
-1.99439411 0.64126834 0.92778341
-2.00879649 -0.82359709 0.23812901
-1.99019430 1.37176515 1.18046257
-1.99420311 0.92772445 1.25454695
-2.00091485 0.98842100 0.29248348
-2.00715033 -0.00914933 1.20082459
-1.99367595 -1.18983030 0.26992251
-1.99714143 0.40194778 1.56367045
-2.00874679 0.48124854 0.06516866
-2.00139247 1.41129875 0.25111242
-1.98124296 -0.80231330 1.75494111
-1.99990099 0.81309899 1.68583802
-2.00445182 0.91985908 1.17312206
-2.00605098 -0.64634100 0.58838660
-1.98936741 1.34181322 1.54912611
-1.99491344 -0.42152865 0.67188135
-1.99155537 -0.60691683 0.58703426
-1.99247588 -0.19184214 1.69711142
-2.00508992 0.12790907 0.81080242
-1.99902445 -0.56289059 0.13304273
-1.99827768 -0.82654057 0.16282514
-1.99170532 -1.11990171 0.29432978
-2.00375307 1.35043166 0.22287437
-1.99961556 -0.35055338 1.58314961
-2.01005848 -1.18029609 0.87048765
-2.01392581 1.03435079 1.00253272
-1.99501195 -0.86896921 1.32391716
-2.00224846 0.54402319 0.65193463
-1.99501432 0.97617865 0.57880325
-1.99161794 -1.08669030 0.93339221
-1.98843156 -1.33156938 0.75068088
-1.99698387 0.52789772 0.85698083
-1.99818672 1.19264532 0.07935220
-1.99855767 -0.47957739 0.63242620
-2.00771297 -0.47961832 0.87783464
-1.99426401 0.87173114 0.57218871
-2.01467280 0.73344962 0.26363785
-2.00351752 0.18217457 0.67515845
-1.99986242 0.11763241 0.19394955
-2.00473857 1.36038854 1.63118541
-2.00271054 0.97918891 1.60700908
-1.98896375 -1.05993639 0.90669919
-1.99337586 -0.54627252 1.59729469
-2.00411497 -0.93168695 0.39590164
-2.00281740 0.56014337 0.16001939
-2.00766202 0.69710153 0.48262912
-1.99577004 0.48280610 1.57146802
-2.00149845 0.32883412 0.38283072
-2.01179880 -1.35250342 0.08030515
-1.99939530 -1.23356435 1.04367224
-1.99736613 -0.45534644 0.43759256
-1.99422115 -0.84208033 1.70744676
-2.00044013 -1.14355027 0.54866594
-1.98808241 1.26285956 0.17837746
-1.99996048 0.54741180 1.13195786
-1.99568263 0.92719157 1.17249792
-2.00323724 0.80816225 0.75824750
-1.99586054 -0.03388652 1.26299178
-2.00873377 0.20528016 0.92076939
-2.00277241 -0.88332478 0.46459487
-1.99249718 0.19504631 1.26725178
-2.00367396 0.18644589 1.24833595
-1.99569046 -1.49996049 0.10699555
-1.99089641 0.59538732 1.44522027
-2.00016546 0.65310471 1.19342204
-1.99403740 0.62214799 1.33126187
-1.99681348 0.67313250 1.32841526
-1.99930138 -1.27794088 0.11388879
-1.99549811 -0.41664017 0.94967409
-1.98896037 0.78785716 0.60247407
-2.00382361 -0.67464877 1.40660695
-2.00575521 -0.75198945 1.47751448
-2.00610749 -0.96859935 0.64705234
-1.99403343 -0.29677317 0.53911881
-1.99322379 -1.48992926 0.42391666
-2.00322222 -0.48703932 0.56452481
-2.01281608 0.85666649 0.08526197
-2.00404854 -0.33315390 0.06752782
-1.99671287 1.29194270 1.42237699
-2.00040034 1.44648480 1.63828896
-1.99891791 -0.55256168 1.24485014
-2.00314007 -0.58033774 1.59878014
-1.99391547 -0.26774139 0.67659758
-1.99794085 1.24220623 1.50613252
-1.99648122 1.39924066 0.11967855
-1.99904561 -0.76998337 0.54154395
-1.99685379 -0.22694382 0.85163408
-1.99724857 -0.62558272 1.42281076
-2.00556845 -0.83026757 1.25373116
-1.99776162 1.05530495 1.08665683
-1.99525095 -0.43752322 0.33820424
-1.99306915 -1.09696142 1.33951453
-1.99750336 -0.09260401 0.08337519
-2.00579150 1.45151852 1.20834573
-2.00486790 1.03254765 0.78873961
-2.00261089 1.36631586 0.35914504
-1.99886322 -0.94459163 1.60260252
-2.00073342 1.17515119 0.89823507
-2.00674239 -1.12264093 0.54938962
-2.00677832 0.76245701 1.52278543
-2.01259113 -0.45703576 0.11022063
-2.01871685 0.49718004 1.33109467
-2.00079069 -0.22795597 1.04957570
-1.98607862 1.46211449 0.44099748
-1.98921932 0.21893308 1.09972874
-2.00586939 0.14732159 1.56443320
-1.99910058 0.31502260 0.91420204
-2.00878748 -1.13095492 1.26577656
-2.00787266 -1.10367792 0.04782581
-2.00718484 -0.03440651 1.03040149
-2.00135299 1.49716218 1.28218823
-2.00109476 1.04577096 0.62349847
-1.99848379 0.02674405 1.75368418
-1.99602070 -0.24783434 1.45312276
-2.00202129 0.07796735 0.40313133
-1.99978279 0.24125591 0.39251165
-2.00656288 -1.49091903 0.42461283
-2.00806698 -0.92056850 0.66765812
-2.00899383 1.16579071 0.69813553
-1.99610451 1.03556288 1.00010344
-2.00202745 -1.47715589 0.33972608
-2.01122672 1.29383414 1.08751220
-2.00037853 1.28864058 0.55821604
-2.00749293 0.64968713 1.38964529
-1.99003773 1.42709881 0.03271767
-2.00347293 1.35671165 0.70486239
-1.99591096 1.01397722 0.98048325
-1.99346622 0.19394863 0.64688020
-2.00572957 0.98541777 0.47522443
-1.99954372 -0.02327584 1.00831410
-1.99667919 0.72756328 0.84894361
-1.99930672 0.54084870 0.87352937
-1.99783340 0.47796191 1.21345826
-2.00797778 0.62832468 1.48193963
-1.99667578 0.12216768 0.34790069
-2.00291699 0.53892252 0.13881255
-1.99790329 -0.84313493 1.42588355
-1.99448007 -0.19478957 0.89647950
-1.99598715 1.46219076 0.42331047
-1.99790768 -1.44134175 0.20047070
-1.99614723 -0.76649442 1.30665604
-1.99586953 0.82746610 1.01788012
-1.99102699 -0.73486080 0.93913541
-2.00020430 -1.45512733 1.22724170
-1.99901626 0.34289267 0.03923377
-1.99440760 0.95103490 1.37416776
-2.00294233 -0.57532876 1.14367797
-2.00801160 0.30447889 0.25772450
-1.99704062 -0.92022210 1.22977105
-2.00123614 1.30065494 1.03731178
-2.00724516 0.20343944 1.16402705
-1.99699675 -0.17826510 0.09750968
-1.99141320 -0.31048846 1.62045398
-2.00977846 0.91484040 1.66936242
-1.99386605 -1.04150524 0.91072396
-2.01522241 0.25418446 0.37786592
-2.00240172 -0.89708928 1.40765928
-1.98895690 0.51555575 1.16493757
-2.00196994 -0.69903763 0.91218496
-1.99946037 -1.43079014 0.23390289
-1.99542280 0.05475259 0.55741010
-2.01029884 1.39700927 0.84867250
-1.99956743 -1.24930753 0.03211623
-1.99961472 0.67577362 0.30871213
-1.98882607 -0.93656289 0.76285300
-2.00741444 -0.70781823 1.10983874
-2.00228924 -0.04292248 0.20061108
-2.00557013 0.85422254 0.76654594
-1.99323558 0.37920010 0.50912974
-1.99984009 -0.01688777 0.53589709
-2.00333340 1.48878223 0.41551617
-2.00310708 1.23857880 1.65233994
-2.00337936 -0.23699804 0.54720561
-2.00284282 -0.35689336 1.78081036
-2.00758667 0.35638868 0.98060443
-2.00155238 -1.39224636 1.52611745
-2.00215524 -1.24858363 0.08455026
-2.00454678 -0.67542574 0.85641949
-1.99906972 1.18586688 1.42214184
-1.99856066 -0.90710357 0.66974315
-2.00333988 0.84072079 0.94876641
-2.00086480 -0.97652417 0.71289936
-1.98704826 0.37780741 1.75180621
-1.98727740 0.48543616 0.02915129
-2.00632454 0.61502483 0.45155665
-2.00548669 1.08647674 0.69100183
-2.00635642 -0.90115489 0.84230494
-1.99365768 -0.73440608 0.42447868
-2.00239118 0.21978540 1.38122329
-1.99856195 1.00486312 0.71580577
-1.98801820 -1.29958871 0.87115500
-2.00006279 -0.19865557 0.35456211
-1.99576251 1.18843470 1.75346686
-1.99687748 -1.34475844 1.43234348
-2.00352930 0.43714967 0.47058526
-1.99364503 0.40546835 0.23155775
-2.00509820 -1.29178048 1.78828034
-1.99196072 0.40910958 0.45580072
-2.00352471 -0.14989813 1.71015873
-2.00286781 -0.18382479 1.62080016
-2.00653093 1.10642759 0.61948137
-2.00554556 0.58802701 1.18889731
-2.00256059 0.81363561 0.65867250
-2.01458809 -1.34329050 0.30787063
-2.00139999 0.34966106 1.39518034
-2.00304785 0.76814590 1.05062685
-1.99525993 -1.24572556 0.03111953
-1.99746212 0.84642527 0.98887758
-2.00424582 0.84813631 0.29301923
-2.00275130 -0.27773049 1.65450472
-2.00140771 -0.98520603 0.11074843
-1.99108426 0.46040215 1.07016541
-2.00493383 1.35609152 1.63164316
-2.00431856 0.74829117 0.03448303
-2.00677150 -0.05883909 1.61298349
-2.00889224 -0.19904674 1.73186230
-1.99815798 0.45746394 0.19702283
-1.99878258 0.02781623 1.25211084
-1.99230343 -1.30389308 0.62036916
-1.99375155 0.65124319 0.28272845
-1.98561730 -0.45498031 1.24183858
-2.00044324 0.82662271 0.93332123
-2.00156318 1.37057258 1.66559555
-2.00780136 -0.07968884 0.28849394
-1.99582053 0.81879469 0.43765124
-1.99928879 1.02846393 1.05685981
-1.99609240 -0.31772098 1.00149005
-2.00683475 0.09842631 1.66451912
-1.99789037 -0.85691085 1.67068521
-1.99876880 -1.40597688 1.38456591
-1.99916579 1.25900439 0.70929394
-2.00409960 -1.28079844 1.44840156
-1.99286405 1.02859457 0.60526330
-1.98769815 0.05577986 1.45704432
-2.00666206 -0.92387107 1.13215636
-1.99567734 -0.20810802 0.31394835
-2.01726710 0.99432062 0.58442550
-1.99598834 1.30327835 1.02408097
-2.01122093 0.04352994 0.76195070
-2.00314980 -0.29798733 1.47233929
-2.00787815 0.53250255 1.39264224
-2.00129367 -0.23674752 0.47058700
-1.99496724 -1.23940434 1.39798078
-2.01114388 -0.25417071 0.91660247
-2.00215688 -0.09197029 0.77604814
-2.00308021 0.55169873 1.09572141
-1.99051371 1.41616140 0.25002703
-1.99740943 0.22055794 0.11383229
-2.00706330 0.92375526 1.10936040
-2.00282777 -0.21486355 1.44402418
-1.99066337 -0.13499217 0.41001497
-1.99571381 -0.08249772 0.12749723
-2.00550940 1.19358333 1.31572507
-2.00160242 0.78094736 1.57408795
-2.00141065 0.87471777 0.77733466
-2.00322789 -1.14409080 0.67205660
-2.01026127 1.30225414 1.70836288
-2.00406573 0.80361260 0.36797505
-1.99166480 -0.91665042 1.58358872
-2.00228687 -1.07425223 1.05144746
-2.00061952 -0.36524495 0.54361981
-1.99915685 0.53214608 1.72722434
-1.98669115 0.83290121 0.87509267
-1.99994675 -0.17786548 1.63379554
-1.99343633 0.23432130 0.89395024
-2.00358908 0.54850761 0.42687687
-2.00155640 -1.30879354 1.53920059
-1.99992468 0.32178510 0.29677878
-2.00464480 -0.60585622 1.78188032
-2.00122231 0.40327090 1.14500185
-1.99467169 -1.28350901 1.74418512
-2.00480219 1.17834867 0.98600840
-1.99999947 -0.57183325 1.25649941
-1.99574760 1.00012318 1.41501854
-2.00494680 1.43114212 1.14633972
-1.99342752 -0.53632371 0.89626970
-1.99956270 0.94895150 0.47761666
-2.00099074 -0.80577524 1.30470224
-2.01204889 -0.16671772 1.46982671
-2.00224167 -1.06894924 0.60425363
-1.99777045 -0.69570028 1.25616267
-1.98952793 0.77798764 0.82080485
0.48734316 0.45663536 0.75585434
0.12875276 0.00804185 0.74965552
-0.11936514 0.20128768 0.75060515
0.67331409 0.09975505 0.74990758
-0.43634617 -0.48242605 0.74324570
0.19058099 0.36459789 0.74597561
-0.69443956 -0.10242879 0.74627744
0.70407508 0.00167700 0.74156837
-0.44694683 -0.14634359 0.74697474
-0.14697669 -0.38271049 0.74351216
0.25726759 0.09216433 0.75346605
0.23635660 0.11079157 0.75396583
-0.77332469 -0.32553715 0.74223817
-0.53508480 -0.40204851 0.74822021
0.37676124 -0.37986279 0.76113636
0.26911052 -0.32160969 0.74411542
-0.61070371 -0.33746995 0.75255983
0.01344553 0.14548251 0.75063313
0.49907978 -0.37143779 0.75655733
0.18589880 0.27383960 0.75177280
-0.30015173 -0.42028442 0.74741223
-0.55048646 -0.40844135 0.75040058
0.61953909 -0.12329833 0.75048822
0.03735777 0.26868815 0.74944983
-0.20560252 0.14910265 0.74208533
-0.67731223 -0.01909435 0.75745853
-0.64556965 -0.25171586 0.75639860
-0.33065468 0.21758380 0.74373487
0.27856670 0.24708009 0.74819565
-0.70119192 0.49391421 0.74864949
-0.71292795 0.32574779 0.74306089
0.38443029 0.09176179 0.73879922
-0.09782854 0.25713235 0.74597644
0.38377249 -0.36282166 0.74786159
0.46821196 -0.42144300 0.74135260
0.00087383 0.14508183 0.75106187
0.51470217 -0.03688978 0.75697714
-0.42102708 -0.00934038 0.75505270
-0.39966702 0.02872538 0.74923989
-0.05998691 0.28050448 0.73895753
-0.41585582 -0.30001482 0.75429421
-0.04130346 -0.44949563 0.75087835
-0.43305499 -0.14629509 0.75254611
-0.01979246 -0.23056329 0.76161662
0.09701839 0.37841467 0.74505113
0.06996394 -0.21316048 0.73275110
-0.70083044 -0.36333370 0.74367927
0.09794779 0.18370884 0.75291627
-0.72053129 -0.31445017 0.75016156
-0.28946997 -0.18022689 0.74270618
0.73345122 -0.29622940 0.74148170
-0.69996744 -0.14698517 0.74787235
-0.58489285 -0.37341803 0.74252343
-0.14807894 -0.19360886 0.75312380
-0.65323716 0.10430343 0.74753144
0.00271963 -0.42290033 0.74623729
0.58039116 -0.21528694 0.74545034
0.73820926 0.43153863 0.75157874
-0.10544540 -0.27143306 0.75025566
0.53576434 -0.13871416 0.75121174
-0.53831889 0.05160772 0.75108078
-0.01695609 0.35001788 0.74956683
0.36685021 0.37613949 0.74380122
0.37552466 0.14217496 0.74561772
0.00028344 0.48755329 0.74763195
0.73466372 0.34885298 0.76239117
0.44051074 0.07755955 0.74190698
-0.38439462 0.37543903 0.74748614
-0.78269418 -0.27256003 0.75058960
-0.15402809 0.08615716 0.74818000
0.09740691 -0.32418417 0.75644382
-0.63232288 -0.27767107 0.74814901
-0.24206594 -0.48594631 0.74859275
0.30792931 -0.25227256 0.75488777
-0.23775290 -0.16509831 0.76086427
0.01892768 0.35979972 0.75844499
-0.56097607 -0.15927289 0.74918008
0.30724609 -0.45576859 0.74970291
0.52796582 0.46182514 0.75028032
0.17221952 0.45650837 0.75088200
-0.13910107 -0.08496827 0.74491591
-0.63000174 -0.46455307 0.75561956
-0.40879309 -0.02187134 0.75123965
0.01229183 -0.28242462 0.74973086
0.18048908 -0.31879413 0.74237313
-0.27806218 -0.30429048 0.75037372
0.31466176 0.01657251 0.73864073
0.37776176 -0.44275183 0.74651010
-0.11942067 0.46695858 0.74662141
-0.71420878 -0.08162131 0.75172197
-0.73536285 -0.35334668 0.76127910
-0.05995768 -0.34248660 0.75343144
0.03000868 0.42273168 0.75869041
-0.47934791 -0.39281349 0.75387127
0.52044250 -0.03973015 0.75675032
0.61217776 -0.19387671 0.76114276
0.20405121 0.42331355 0.74560898
-0.52528672 0.30072856 0.74521737
0.21042680 0.31294674 0.75401287
-0.52689065 -0.06591353 0.74997793
-0.59386043 0.46008211 0.75132212
-0.69969324 -0.43451660 0.74850800
0.63704991 -0.19923785 0.74642245
0.15523205 -0.21252447 0.75972459
0.23801340 -0.30753063 0.74340083
-0.06580887 0.03349217 0.75411835
-0.26617138 -0.24829939 0.75314537
-0.57566933 0.20614434 0.74052592
-0.53074765 -0.20787361 0.74501532
-0.26094598 -0.04563320 0.74602386
0.32410992 -0.07205487 0.75338750
0.59374979 0.17978565 0.74779779
0.54157875 0.21635396 0.74948646
-0.56218912 0.47792730 0.74125412
0.45853803 0.07272177 0.76395547
-0.53563049 -0.32731935 0.75042717
0.18292988 -0.08380287 0.75299401
0.28137520 -0.12757228 0.74675625
0.02055227 -0.31204196 0.74608424
-0.55167817 -0.42435524 0.76147611
0.51142289 0.05538625 0.73849967
0.71542566 0.24948628 0.75167188
0.43002106 0.00905843 0.74273098
0.50472630 0.44206345 0.74756999
0.35478440 -0.39441106 0.74617143
0.24163177 -0.37956679 0.74408413
-0.67644412 0.19290041 0.75021265
0.53565669 -0.34115851 0.73459183
-0.68136223 0.38652289 0.74810707
-0.58846506 -0.46491391 0.74945826
0.35368699 0.34771555 0.74184434
0.02315735 0.03992524 0.75907931
-0.26102318 -0.26153680 0.74643325
0.40837131 0.34928441 0.74857509
-0.28600839 -0.22618082 0.74644669
-0.37153325 -0.44940458 0.74951060
-0.35027996 -0.47434908 0.75784886
0.46145220 -0.24407317 0.76483809
0.30424830 0.04318839 0.75447384
0.53994181 0.46037873 0.75652796
-0.21233342 -0.41165918 0.76029856
0.39943322 -0.47869767 0.75149323
-0.44325866 -0.44674933 0.75942151
0.63703739 -0.49470292 0.75475441
-0.01161254 -0.07600087 0.75086392
0.24439146 -0.21025591 0.75210205
0.59791264 0.23434574 0.73907150
-0.10832892 -0.14197375 0.75175272
0.50542120 0.25706030 0.74073751
-0.16159991 -0.15862814 0.74024839
-0.73777922 -0.41829275 0.75115727
-0.71373047 -0.47558451 0.74331553
-0.55540419 0.35714182 0.74995732
0.47705490 0.34557385 0.75083061
0.19808058 0.12406310 0.75109830
-0.60170921 0.19896535 0.74457527
-0.35195774 0.01925333 0.75539209
0.72755617 0.37061539 0.74946459
-0.42689039 0.23665062 0.75264645
-0.63345480 -0.47325751 0.74282136
-0.75492116 -0.32975352 0.74893003
0.31191744 -0.13669411 0.75658377
-0.77449210 0.48802263 0.75582107
0.05340545 -0.10611978 0.74521624
0.03015983 0.01997091 0.74672665
-0.04762148 0.11294890 0.74406788
0.61700259 -0.19828631 0.74606152
-0.02085020 -0.49635600 0.74160559
0.57570285 -0.19409611 0.74917094
-0.36592496 0.49753717 0.75379883
0.13502870 -0.37695675 0.74528968
-0.37516005 -0.14677341 0.74945636
0.77769608 -0.06937832 0.74867701
-0.43178562 0.06973097 0.75633071
-0.15238455 -0.44503961 0.74633045
0.57747138 -0.48431247 0.74654870
0.63757382 0.29185870 0.74492387
-0.67868286 0.22361108 0.74317494
0.43350669 0.10230707 0.75317511
0.12427328 -0.45031297 0.74918934
-0.70480581 0.22728865 0.75032886
-0.63109571 -0.25815590 0.75764785
-0.00186145 -0.33583633 0.75799248
0.46374330 0.30737802 0.74012259
0.54742914 -0.45043188 0.75388701
-0.11540294 0.34691767 0.75135388
-0.21884898 0.19582038 0.74723045
0.14279345 -0.15279138 0.75196610
-0.35775227 0.15274309 0.73964170
-0.58620138 0.36012252 0.75877585
0.12230951 -0.38849649 0.75308966
0.32564423 -0.06888745 0.74480881
-0.47346974 0.46106929 0.74648754
0.35143646 0.09299362 0.73978112
0.55818749 0.04386979 0.74811626
-0.09364702 -0.31055314 0.74710361
-0.55457532 -0.06803068 0.74204934
-0.07044067 0.23331251 0.75466021
-0.09266398 0.09315920 0.75766078
0.53202964 0.49333470 0.74983584
-0.28395950 0.40195446 0.74816612
0.48968139 -0.43199331 0.75260991
-0.26534571 -0.28095704 0.74988217
0.26301484 0.05529914 0.74350692
-0.00823832 0.26356376 0.74608393
-0.26670609 -0.11724770 0.74822138
0.58501432 0.47220851 0.75148912
0.44217175 -0.28292903 0.75005602
-0.61975739 -0.29079485 0.75126222
-0.12358182 -0.26330297 0.74085103
0.64166584 0.17072290 0.75399131
-0.13323321 -0.22618827 0.75002050
-0.19094239 -0.02394940 0.76531625
0.34211576 -0.41065844 0.74767419
0.55813270 -0.37243997 0.75194075
-0.38007987 0.49358990 0.76697531
-0.49566619 -0.39885781 0.75116455
0.22144848 -0.10687092 0.74959422
-0.65306331 -0.49625757 0.74407847
-0.67334148 0.02273558 0.75916960
-0.43057129 0.27755213 0.74304539
0.57201381 -0.35516698 0.75256273
-0.26076821 -0.35342587 0.74715867
-0.34129167 -0.26079558 0.74886398
0.45898384 -0.15452032 0.74145641
-0.00709632 0.17389511 0.75805876
0.51561064 -0.19879091 0.74833322
-0.46524693 0.47845337 0.74270946
-0.28776393 0.17106810 0.75751614
0.28454567 0.01402945 0.74697518
-0.43448409 -0.35854258 0.75200764
-0.02077417 0.01092954 0.75504850
0.43738681 0.20983344 0.75284421
0.65926605 0.47086056 0.73682019
0.36456212 -0.42348875 0.75417214
-0.15181071 0.10880237 0.74939632
0.14431211 -0.31855621 0.74802583
0.13271157 -0.15031949 0.74934555
-0.25771705 0.33400701 0.74033980
-0.12490695 0.02739595 0.75115303
0.10059658 0.06299678 0.74181365
-0.45900558 0.09945336 0.74828496
-0.26460223 0.15502029 0.75093759
-0.56688384 0.49411559 0.75644422
0.43526927 -0.08274857 0.74508232
-0.31783704 -0.11219797 0.75870952
0.35393324 0.15540780 0.75568112
0.32334802 0.38899920 0.74742354
-0.06992764 0.16952115 0.74334750
-0.09358727 0.13809808 0.74133710
-0.04028218 0.27666363 0.75163052
-0.79158380 -0.28428904 0.74557630
-0.32569980 0.44539451 0.75719614
0.01127394 -0.13564812 0.74592286
-0.15310062 -0.04817772 0.74459597
0.58852862 0.46233587 0.75140176
0.55066342 0.34165676 0.74588372
-0.48157582 -0.23132193 0.75005130
0.15367869 0.15613741 0.75591594
-0.47567140 0.24628187 0.75070338
-0.48005832 -0.23698935 0.75072579
-0.30912714 0.34599142 0.75123088
0.37133423 0.03068544 0.73984141
0.51159888 0.31292825 0.75235103
-0.17626705 0.28143729 0.75095959
-0.47001156 0.00322885 0.75535738
-0.61081323 -0.07320551 0.75363486
0.03258523 -0.42008164 0.74878831
-0.05981958 0.15167054 0.75619436
0.18254118 -0.44564611 0.74824422
-0.64745650 -0.14864375 0.75148294
0.54829716 0.36975605 0.74813310
-0.30461941 0.21889209 0.75277055
0.12382495 0.48342226 0.74774106
-0.64856974 0.04788074 0.75988531
0.14806024 -0.19233143 0.76210418
-0.72487480 -0.44789546 0.75524363
-0.07421111 0.19247379 0.75924778
0.32028126 -0.31903015 0.74076471
0.57275543 -0.12283757 0.74147173
0.74298864 -0.38184037 0.74807064
0.53832752 0.40833815 0.75024739
0.51628084 0.30884114 0.74881076
-0.22190398 0.21334311 0.74014719
0.12695451 -0.07552087 0.75690955
0.78897871 -0.20954528 0.76292519
-0.13896956 0.40286104 0.75768593
-0.33758675 -0.34731886 0.75651314
-0.30400040 0.25931168 0.75135672
0.57576642 -0.38555501 0.74494202
0.19474029 0.06728691 0.75043517
0.27007646 0.17105637 0.76263353
0.73514795 -0.15347079 0.74788807
-0.32037293 0.08122529 0.74727026
-0.11293047 -0.02624573 0.75664382
-0.68915681 -0.35175782 0.75704212
0.69659990 -0.43170855 0.74491259
0.14423295 0.25457503 0.74843109
-0.78101835 -0.27725185 0.74698857
-0.19668475 0.00681745 0.75041814
-0.25344753 0.14899926 0.75662212
-0.43776397 -0.47451706 0.74517583
-0.79748632 -0.15448799 0.75653799
-0.22133952 0.44860412 0.75060991
-0.72835086 0.03006506 0.76395715
0.12450130 0.19927501 0.75191299
0.22197536 -0.49186051 0.74941849
0.21097228 -0.17761206 0.75344829
0.43659034 -0.31163461 0.74797712
0.34592904 0.12549533 0.73922836
0.24366542 -0.32405231 0.74855687
0.27067840 0.23697841 0.74846224
-0.01694358 -0.15963432 0.74044610
-0.53351224 -0.21003947 0.74956179
0.42212538 -0.09059928 0.73759734
0.32434119 0.24009132 0.74791388
0.27867236 0.17353842 0.75146158
0.17729313 0.01842198 0.75058198
-0.48349330 0.34280339 0.74753358
0.74282268 -0.03351593 0.74948682
0.69318201 0.49799454 0.74529561
-0.02208654 0.22435537 0.75006490
0.23006454 -0.26273518 0.75034852
-0.72465689 -0.04664469 0.74459850
0.45952800 -0.17486534 0.75160620
0.45510195 0.15480168 0.75156872
0.31286616 -0.21425911 0.74900274
-0.04792419 -0.31829620 0.76452628
-0.40547116 -0.41014996 0.74915579
-0.59716255 -0.28948652 0.74832459
0.12837474 -0.05878888 0.74746564
-0.37289678 0.36111245 0.74417436
0.04023631 0.42310947 0.75411538
0.21594394 -0.48421240 0.74588252
0.66156111 0.35746334 0.74659231
0.21643396 0.03477356 0.74677055
-0.07531828 -0.01782515 0.74409034
0.43075303 0.01314160 0.73949350
-0.51836048 -0.44182243 0.74722236
-0.59810196 -0.24855889 0.75524001
-0.21162541 0.39241601 0.75118188
-0.41746043 -0.18040144 0.75936345
-0.44317674 0.04574182 0.75450574
0.18733871 0.03212753 0.75314379
0.72297064 0.49537802 0.76129589
0.53983358 0.30529614 0.74941713
-0.21431556 0.07978351 0.75037845
-0.23764413 0.28435585 0.74993121
-0.52507018 -0.28332829 0.75926272
-0.73808949 0.10893967 0.75001509
1.87424973 -1.11445706 -0.04333095
1.83614524 1.36945797 1.23424222
-1.11769169 1.59719768 1.40722734
0.76513617 -0.94210150 0.87748726
1.41933546 1.22488476 0.97900324
0.10029291 0.67212502 0.90932257
-0.36220343 -1.40957536 0.06470432
1.14521206 -1.61614218 -0.09015945
1.78043174 0.69359019 -0.19115328
-0.82700915 0.89528277 0.67696168
-0.13728958 -0.14008319 0.22448225
0.97412233 -1.34977848 0.86522732
-1.45219436 -1.54178845 0.10081216
1.62507372 -1.10109794 0.38457534
-1.59238293 0.80085335 0.73544325
1.95199417 0.55870358 0.91591736
0.68917610 -1.56255370 1.79638655
2.00829029 -0.76112445 1.11942051
-1.31157293 0.16140410 1.41865740
1.93521559 -0.54666246 1.25636105
0.95227930 -0.94809408 1.12096748
0.68385367 0.89785876 1.89988924
-2.02297757 -1.01216285 0.10466471
-1.52049017 -0.15555455 1.64492677
-0.22561762 0.57283335 0.59064820
-0.79348141 1.13639963 1.17664977
-0.65606073 1.40814489 0.84687429
-1.37159111 -0.05704567 1.21686882
-0.58470461 1.16886810 0.91960236
-0.14183497 1.21961884 0.77212739
-0.37659538 -1.34736426 0.56123295
-0.45298748 -1.08588411 1.03442872
-1.56709489 -0.93945472 0.97829317
-1.01647232 0.47487225 1.25007758
-0.87432219 -1.40288188 0.82784885
-1.79124695 0.05180132 1.32505747
0.52945108 -0.17589002 1.78630295
-1.75231217 1.29200512 1.48027063
-0.35315025 -1.18025162 0.12732025
1.85594535 -0.90540414 1.63564299
0.01449897 -0.13010224 1.10097366
-1.25382804 -0.24353971 1.77081732
-1.15166951 1.43338410 1.88784036
-1.97160837 0.10668902 0.16082053
0.53554273 1.66444499 1.68344988
1.86933323 -0.97461063 0.93887116
-1.16674353 1.35804401 0.20142339
-1.52258079 -1.65864705 0.18209051
-1.36504347 -1.43653336 1.62225632
1.23199036 -0.83476291 1.44484118
-0.34247599 0.93676905 0.47831607
0.28447860 -0.40252416 0.19411922
0.37678469 0.85282472 1.38152496
-0.63232656 0.06362001 1.40393506
-1.96021058 -1.45557967 0.59006775
0.40483533 0.58391772 1.46286507
0.66230093 -0.35230326 1.76334927
0.99586087 0.09411624 0.23438586
0.65548994 0.31184979 1.23499300
1.23694897 1.41116870 1.79301884
0.57281621 1.58425052 1.71398704
-2.18849683 0.46789939 0.17478576
-0.90115232 -0.68849932 0.81457224
-2.15218882 -0.89829221 -0.13884599
0.66245769 1.32357777 1.89535619
-0.22634968 -0.81552022 1.59151755
-1.70210252 1.61241254 1.30115865
0.01731253 -1.37138817 -0.16178854
0.19594167 -0.29290827 1.56959544
0.62614411 -0.23155242 0.27461483
-0.08614228 -1.14581945 1.20072659
0.46520792 1.05424265 0.74401147
-0.97394645 1.14374422 1.25109387
0.90952032 0.09548754 1.63955509
-1.19775257 -0.33424711 1.47208840
-1.61497203 1.04757228 0.54044996
-1.64778372 -1.43089175 1.57036031
1.22590840 -0.72065943 0.04436060
-1.11216853 -0.97584204 1.33941687
-1.25152243 -0.96526503 -0.13223692
0.42618263 0.64253046 1.17232998
0.30183629 1.58465483 0.79275088
1.36438923 0.28692104 1.17240388
-1.40699928 -0.21253368 1.64922320
-1.25210275 -1.69957532 0.34076830
-0.05481322 1.09234535 1.15091089
1.84387926 -0.15108093 0.62071197
-1.18175985 -0.95858755 1.34583078
-1.84641986 -0.87477381 1.66038005
0.33845160 -1.54160213 1.27893560
0.02940242 1.20537387 1.23311113
-2.18043501 -1.00048710 0.34172377
0.88982207 0.03166820 1.36963974
-1.30846277 -0.33734773 0.95805405
1.93000457 -0.88495140 1.19877837
-1.52879799 0.72676061 -0.17618416
0.68604778 -1.14505997 0.17868134
0.25919359 -0.42360074 0.78974082
-0.84088892 1.54178797 0.41037781
0.18500867 1.20480889 1.19477971
-0.77978143 0.17828472 -0.02571863
0.20102017 -0.23327710 1.39166078
1.53077251 -1.02130383 -0.02877460
-0.48154928 0.11611139 0.59128409
0.56566915 0.01921435 1.76691467
-0.39867906 -1.41951981 0.43406354
0.46593299 -0.82951466 0.36487575
-0.70588107 0.83688205 1.77427979
-0.65834281 -1.03534066 0.68333760
-0.65190535 1.66608471 0.77412334
0.78884675 1.40687943 1.12102931
-1.10273471 0.36519432 0.64394031
-0.34166057 1.62970358 0.38504113
-0.13668536 -1.15645204 0.17494282
0.45533147 0.85345341 1.13656573
-0.75115041 -1.49729821 0.78755411
0.01878647 0.92021547 1.14460808
