ply
format ascii 1.0
element vertex 221
property float x
property float y
property float z
end_header
0.42222657 -0.13401418 0.68686224
0.27965701 -0.80170652 0.10118656
0.43472736 0.11610569 0.58858521
-0.24654695 -0.43287516 0.03683801
0.79073253 -0.30130935 -0.23045339
0.19907141 -0.72998315 -0.17079874
0.46356145 -0.22701918 -0.47641719
-0.11756421 0.09654974 0.41200355
0.22051680 -0.35229166 0.67768393
0.52089245 0.13165011 0.54336149
0.36557087 -0.76502481 0.28569173
0.19853007 -0.74852338 0.32933519
0.84919834 -0.37093966 0.27723966
0.78986263 -0.04196610 0.40228995
-0.14696354 -0.59008156 -0.00966853
0.54232547 -0.13357899 -0.44653422
-0.25256838 0.00823737 0.20460925
0.00313252 0.15807995 -0.27891847
0.60594403 -0.20001202 0.61895674
0.52739568 -0.63699290 0.44698208
-0.09573981 -0.63266359 -0.02688279
0.83590302 -0.19009436 -0.17454531
-0.23195553 -0.47433609 0.02137670
-0.11473917 -0.17614798 -0.32923391
0.29085432 -0.70655789 0.42424786
-0.28974458 -0.28056946 0.02004173
0.40729503 0.38586145 0.15762607
0.59693381 -0.56953651 0.47044099
0.22936497 0.37281567 0.28377128
0.53628245 0.02254609 0.60570426
-0.17957576 -0.20306332 0.46273124
0.27663132 0.35204401 -0.12582353
0.70401606 -0.31210931 -0.33448111
0.59833946 -0.72303894 0.09951058
0.71402453 0.17545976 0.32682088
0.16213064 -0.18439552 -0.48490355
0.01559889 -0.57126629 -0.27458909
0.70917642 -0.43721050 -0.27149544
-0.09712306 0.21091154 -0.06521542
0.30393178 -0.24741616 -0.49418632
0.54041333 -0.08749481 -0.43643355
-0.05960688 -0.66688209 -0.03576518
0.82806382 -0.38721046 0.31589352
-0.25309399 -0.25270132 0.31953811
0.16534580 -0.25193071 0.67849206
-0.21760462 -0.14228757 0.38944066
0.63749871 -0.46317836 -0.32237154
0.21257323 -0.59782593 -0.33963834
0.03437902 -0.70188778 0.30383478
0.70404453 0.24350144 0.16021960
-0.09374193 -0.62674112 0.24414378
0.16372889 0.35133238 -0.08516270
0.32621676 0.34749789 -0.12628617
-0.09806268 -0.48315575 0.44179644
0.57679714 -0.69475726 0.30771976
0.16942772 0.38716112 0.12781396
0.15754753 -0.39035540 0.64933939
0.78111099 -0.35964417 0.42404767
-0.06588170 -0.11045592 -0.36771676
0.42954311 -0.62039381 0.50540607
0.51807547 -0.68668679 -0.17076013
-0.20938570 0.06034913 -0.08225529
0.54553645 -0.71724127 0.29428034
0.21410421 0.38521545 0.20203575
0.54807666 0.22548427 0.44096393
-0.08615127 0.11527921 0.43271888
0.43395493 -0.78769049 0.09682996
0.01141810 0.24395565 -0.17798854
-0.22861768 -0.17416648 0.38148705
0.24795352 -0.65570650 -0.29128545
0.73298903 0.08228842 -0.19491391
0.74099712 -0.45431413 0.42025400
-0.18961458 -0.52390784 0.23482652
0.38351255 0.37690069 -0.02839527
0.04972091 0.15809755 0.51105956
0.08405962 -0.65335198 -0.22229135
0.61846806 -0.67811439 0.26567338
0.35292057 -0.30162972 0.69421380
0.25451612 0.35154335 0.32871637
0.52176518 -0.68633620 -0.18692422
0.35793151 -0.54828549 -0.38628548
-0.22522481 -0.36784416 0.32895259
-0.04632022 0.05792851 -0.31552065
0.87442538 -0.04257642 0.17585664
-0.02351551 -0.58490788 -0.22894267
0.25011645 -0.71728401 -0.20839085
0.03991169 -0.44608511 -0.38332076
0.25676553 0.32072796 -0.19359448
0.68014286 -0.64445930 -0.03438212
0.75396980 0.18745048 0.16477727
0.28458510 0.26261749 -0.28673409
0.61421098 -0.38072838 -0.37972089
0.80258516 -0.47931201 0.26006726
-0.02465478 0.29439760 0.16594304
0.83955388 -0.37813797 -0.09560185
-0.19340798 0.12392418 0.21237104
0.21212717 -0.60053101 0.53593825
0.11362266 -0.04850730 -0.45177179
0.89243981 -0.23405128 -0.01237078
-0.14953217 0.11509345 0.33410190
0.50180164 0.15954527 0.53452230
0.09978774 -0.55386671 -0.33892621
0.74393097 -0.22320048 0.50640920
0.39996589 -0.38218998 0.66000054
0.53144742 0.11868627 -0.34940959
0.41431899 -0.47576501 -0.41973353
-0.28916571 -0.18209334 0.14494419
-0.15283272 -0.50283087 0.36238355
-0.12614215 -0.56840490 0.30044200
-0.12934844 0.05617920 0.43395006
-0.14432630 -0.17636354 0.49586855
0.40071869 0.37847549 -0.00331213
-0.25826798 -0.39260473 0.19628852
0.17767621 -0.08484581 0.67882250
0.50173345 -0.34872225 0.65079760
0.86854373 -0.18904870 0.30404639
-0.21803526 0.10101000 0.10856734
0.00014160 0.21084083 -0.23068237
0.87121256 -0.37086061 0.09366201
0.20303225 -0.60702645 -0.33220398
0.76807107 0.17484051 0.10550378
0.26432313 -0.41820227 0.66029358
-0.05704400 0.28196363 0.11510539
0.66193252 0.06173660 0.50297842
0.36615045 0.28320695 -0.24813610
0.05621889 -0.70666526 -0.10396784
0.26245047 -0.17033301 -0.49698140
0.34099825 -0.18366439 -0.49699997
0.55752752 0.24936233 -0.19697049
-0.23383365 -0.01338510 -0.08492695
0.80034931 -0.38588803 0.36767528
0.70488377 0.05974951 -0.26684602
0.87634903 -0.12080437 -0.04138836
0.30428845 -0.54445361 0.58979642
-0.09190577 -0.43860095 -0.28311462
0.78946815 -0.52983792 0.23489678
0.14541244 -0.67955789 0.42661276
0.79622860 -0.02232624 0.38674302
-0.27696205 -0.03702211 0.16406478
-0.04209255 -0.69102536 0.10435082
0.74938219 -0.12246487 0.49106622
0.53687629 -0.74402143 0.02366089
0.58197544 -0.72493925 0.02176007
-0.17340381 0.15457054 0.23027207
0.47024532 0.36337144 0.01436485
0.39854522 -0.30163505 -0.48461060
0.09404987 0.11557466 -0.36864414
0.21165464 0.00801090 -0.45458418
0.75566806 -0.11456584 -0.28644862
0.88455828 -0.25057948 -0.00775183
0.32946652 -0.16194887 0.69606122
0.09430952 -0.42384196 -0.42158051
0.33464412 -0.11939800 -0.49145128
-0.00507426 -0.69664300 -0.03734899
0.67847651 -0.15958909 0.56069213
0.49891907 -0.47904166 0.59110902
0.49895778 0.34343064 -0.06344499
-0.04852327 -0.37579710 0.55085857
0.10382221 -0.18231406 0.66371650
0.74868798 -0.47333064 0.39189198
-0.25947714 -0.38235898 0.22603597
0.14708543 -0.31128174 0.66912685
0.87819239 -0.16046018 -0.04912678
0.87666262 -0.15714130 0.26746488
-0.23863451 -0.40038335 -0.06336430
0.73548075 -0.40440766 -0.25741597
0.34479462 0.03331554 0.64877311
-0.12938722 -0.51903443 -0.16128819
-0.01417925 -0.35425559 0.58707659
0.86811157 -0.02101956 0.17030557
0.26311287 -0.23382319 -0.49715413
0.66716363 0.02329592 0.51745896
0.32093466 -0.60133630 0.54573488
0.32591279 0.28793182 0.44801056
0.62548856 -0.37378605 0.56988514
0.28624138 -0.64627445 -0.29999009
0.49976188 -0.76421313 0.11645771
0.63514947 0.22604174 0.36038727
0.31044238 -0.34168320 0.68061518
-0.27123438 -0.26021034 -0.08165518
-0.15954375 -0.56552403 -0.02588867
0.66644320 0.11608278 0.45205226
-0.06736573 0.08258317 -0.28225385
0.28259163 -0.77612817 0.26102089
-0.26662258 -0.20350830 -0.10518294
0.03374723 -0.65870360 -0.19985721
0.67430001 -0.38581525 -0.33497523
0.59401401 0.31923635 0.12592548
0.41486290 -0.02958284 -0.46492075
0.69818398 0.19030901 -0.11971774
0.44780262 -0.63686100 -0.28973623
-0.05234242 0.02803638 0.53509440
-0.21930106 -0.14785280 0.39747536
-0.25440525 0.03298851 0.18528586
-0.23893918 0.01144823 0.23924598
0.34628999 0.25724861 0.48587235
0.21506729 -0.08828268 0.68361044
0.83451274 -0.28398816 -0.15874558
-0.08981545 -0.42583355 -0.29538383
0.66429335 0.17249842 -0.19637624
0.56155975 -0.41141365 -0.40221958
0.76677440 0.02675675 -0.20267814
0.84242441 -0.37941286 -0.09106321
0.20006614 -0.72020579 0.38872622
0.24666957 -0.79725196 0.13165624
-0.25975772 -0.06710388 0.28905229
0.74193203 -0.00478783 -0.24804900
0.19157696 0.37933754 -0.01043609
0.24871488 -0.77825074 -0.05457452
0.58600582 -0.67711695 -0.11322060
0.68825961 0.25522450 0.07827905
0.35633916 -0.54349508 0.58549891
-0.23217357 -0.45875631 0.01154503
0.20074082 -0.12656751 -0.48764887
0.67022360 0.17188765 0.39153792
0.43653372 0.37370332 -0.02665294
0.89830121 -0.12762186 0.10357861
0.06869264 -0.65035581 -0.21987331
0.83001035 -0.24323006 0.37011420
0.23881581 -0.57710453 -0.36767144
0.68236005 0.28245447 0.10734003
